# .PCD v0.7 - Point Cloud Data file format
VERSION 0.7
FIELDS x y z intensity normal_x normal_y normal_z curvature
SIZE 4 4 4 4 4 4 4 4
TYPE F F F F F F F F
COUNT 1 1 1 1 1 1 1 1
WIDTH 1140
HEIGHT 1
VIEWPOINT 0 0 0 1 0 0 0
POINTS 1140
DATA ascii
9.0372057 0.072970159 10.190356 0 0 0 0 0
9.0013905 0.069809631 11.444756 0 0 0 0 0
9.0023365 0.088634431 12.08835 0 0 0 0 0
9.12784 0.014823025 13.462689 0 0 0 0 0
9.1351385 0.087005273 14.137942 0 0 0 0 0
9.1095448 0.015520187 15.41431 0 0 0 0 0
9.0445957 0.011291121 16.226341 0 0 0 0 0
9.1721573 0.054578442 17.230625 0 0 0 0 0
9.1713648 0.090951189 18.193335 0 0 0 0 0
9.1912222 0.017413575 19.093847 0 0 0 0 0
9.5494337 0.036016427 0.45869738 0 0 0 0 0
9.625576 0.036711849 1.3077455 0 0 0 0 0
9.6034784 0.037879918 2.2509177 0 0 0 0 0
9.6388178 0.0017997678 3.3250327 0 0 0 0 0
9.6238937 0.069369212 4.2600594 0 0 0 0 0
9.6790705 0.02414149 5.3376598 0 0 0 0 0
9.6447954 0.046439286 6.3941154 0 0 0 0 0
9.5353317 0.032517709 7.1670079 0 0 0 0 0
9.6275816 0.018200286 8.1217642 0 0 0 0 0
9.5049152 0.013811374 9.2088318 0 0 0 0 0
9.5424538 0.038528159 10.388914 0 0 0 0 0
9.5259323 0.0013161463 11.072474 0 0 0 0 0
9.6490307 0.053055219 12.261872 0 0 0 0 0
9.5493984 0.022464326 13.270871 0 0 0 0 0
9.6794109 0.084411301 14.117718 0 0 0 0 0
9.5834351 0.07394667 15.238425 0 0 0 0 0
9.5184984 0.046344198 16.470621 0 0 0 0 0
9.6761446 0.064009845 17.133209 0 0 0 0 0
9.5429478 0.027800465 18.224211 0 0 0 0 0
9.5916538 0.030258015 19.293268 0 0 0 0 0
10.175186 0.051484883 0.48590907 0 0 0 0 0
10.130752 0.064451218 1.4924898 0 0 0 0 0
10.159741 0.038966663 2.257766 0 0 0 0 0
10.06449 0.063665636 3.3700876 0 0 0 0 0
10.172839 0.053371169 4.2921438 0 0 0 0 0
10.019926 0.095088527 5.1618776 0 0 0 0 0
10.115295 0.0043379008 6.3935986 0 0 0 0 0
10.103544 0.092410408 7.2136478 0 0 0 0 0
10.156829 0.013884495 8.3526497 0 0 0 0 0
10.046513 0.059711348 9.0039396 0 0 0 0 0
10.16382 0.047304548 10.261364 0 0 0 0 0
10.158184 0.01268052 11.08362 0 0 0 0 0
10.15518 0.092551105 12.278454 0 0 0 0 0
10.058287 0.024796231 13.096782 0 0 0 0 0
10.006321 0.011215656 14.363638 0 0 0 0 0
10.123178 0.021178592 15.339081 0 0 0 0 0
10.18793 0.078826524 16.360769 0 0 0 0 0
10.14537 0.030598748 17.322823 0 0 0 0 0
10.030828 0.0090129701 18.392244 0 0 0 0 0
10.171888 0.032269474 19.190802 0 0 0 0 0
10.673464 0.014179638 0.42732403 0 0 0 0 0
10.57801 0.093271621 1.4907266 0 0 0 0 0
10.611458 0.070861563 2.4534822 0 0 0 0 0
10.52284 4.6877658e-06 3.0774634 0 0 0 0 0
10.561553 0.0031653233 4.1335416 0 0 0 0 0
10.507008 0.064754769 5.2394347 0 0 0 0 0
10.64264 0.058719702 6.1335673 0 0 0 0 0
10.586948 0.031404316 7.286561 0 0 0 0 0
10.516077 0.046818461 8.3316259 0 0 0 0 0
10.672975 0.032762602 9.4929733 0 0 0 0 0
10.549295 0.019494751 10.063871 0 0 0 0 0
10.520225 0.058499791 11.03023 0 0 0 0 0
10.516516 0.014228934 12.384538 0 0 0 0 0
10.697908 0.025648853 13.384561 0 0 0 0 0
10.528893 0.056425173 14.400387 0 0 0 0 0
10.582311 0.059929065 15.224161 0 0 0 0 0
10.678084 0.031249061 16.017759 0 0 0 0 0
10.531511 0.074723057 17.174782 0 0 0 0 0
10.646135 0.082761459 18.408873 0 0 0 0 0
10.578786 0.069248773 19.072687 0 0 0 0 0
11.075974 0.093896337 0.17016031 0 0 0 0 0
11.101523 0.0040087067 1.4626592 0 0 0 0 0
11.113615 0.012266404 2.0338039 0 0 0 0 0
11.06743 0.011220535 3.1620481 0 0 0 0 0
11.021255 0.02566733 4.4441738 0 0 0 0 0
11.181409 0.066822454 5.2438192 0 0 0 0 0
11.071074 0.055864476 6.4000645 0 0 0 0 0
11.078177 0.071619943 7.2736797 0 0 0 0 0
11.14809 0.044687603 8.1874876 0 0 0 0 0
11.11164 0.084080413 9.0337315 0 0 0 0 0
11.140714 0.022067854 10.003213 0 0 0 0 0
11.008779 0.072829567 11.023256 0 0 0 0 0
11.193842 0.029637167 12.084588 0 0 0 0 0
11.007363 0.063352212 13.140691 0 0 0 0 0
11.072183 0.0739794 14.269028 0 0 0 0 0
11.049852 0.064684048 15.10314 0 0 0 0 0
11.14738 0.00022092197 16.382462 0 0 0 0 0
11.107406 0.039309725 17.240562 0 0 0 0 0
11.016878 0.013354775 18.464001 0 0 0 0 0
11.091873 0.069174536 19.384401 0 0 0 0 0
11.605366 0.0395316 0.49474141 0 0 0 0 0
11.60665 0.043920729 1.3588892 0 0 0 0 0
11.615953 0.040841706 2.0070751 0 0 0 0 0
11.649789 0.044523466 3.3238361 0 0 0 0 0
11.506064 0.080614857 4.1937332 0 0 0 0 0
11.613676 0.0055410643 5.0171533 0 0 0 0 0
11.654932 0.079231143 6.0182581 0 0 0 0 0
11.607917 0.032934166 7.2148066 0 0 0 0 0
11.504142 0.041373186 8.2815809 0 0 0 0 0
11.689742 0.087309659 9.1274529 0 0 0 0 0
11.643502 0.039992355 10.325111 0 0 0 0 0
11.641399 0.093317613 11.044715 0 0 0 0 0
11.584955 0.051294141 12.248923 0 0 0 0 0
11.587785 0.026188338 13.47154 0 0 0 0 0
11.51732 0.029220741 14.374615 0 0 0 0 0
11.594812 0.086058684 15.40232 0 0 0 0 0
11.601674 0.063524611 16.298475 0 0 0 0 0
11.608977 0.017483 17.463146 0 0 0 0 0
11.6949 0.019553807 18.170013 0 0 0 0 0
11.607532 0.014424627 19.106562 0 0 0 0 0
12.158513 0.086175874 0.30652288 0 0 0 0 0
12.088558 0.056875397 1.273111 0 0 0 0 0
12.106443 0.09935277 2.0295815 0 0 0 0 0
12.006013 0.043245159 3.1605234 0 0 0 0 0
12.19463 0.051904779 4.3066273 0 0 0 0 0
12.144475 0.099311039 5.2369204 0 0 0 0 0
12.105404 0.050147973 6.0545435 0 0 0 0 0
12.024794 0.0046365187 7.1419587 0 0 0 0 0
12.010053 0.0020863917 8.239728 0 0 0 0 0
12.078058 0.055852372 9.3118505 0 0 0 0 0
12.120682 0.035108991 10.24273 0 0 0 0 0
12.043291 0.079387851 11.027107 0 0 0 0 0
12.152535 0.032609683 12.02387 0 0 0 0 0
12.164369 0.035616197 13.240097 0 0 0 0 0
12.028578 0.032930855 14.49962 0 0 0 0 0
12.151229 0.0051685153 15.496176 0 0 0 0 0
12.045997 0.057870246 16.246916 0 0 0 0 0
12.067814 0.070267193 17.270098 0 0 0 0 0
12.124598 0.075293526 18.280531 0 0 0 0 0
12.020489 0.014322412 19.059792 0 0 0 0 0
12.645228 0.074663527 0.23533702 0 0 0 0 0
12.542321 0.096309207 1.1322763 0 0 0 0 0
12.553164 0.072577089 2.2953248 0 0 0 0 0
12.562712 0.054761298 3.4734056 0 0 0 0 0
12.658751 0.069050178 4.1380601 0 0 0 0 0
12.658599 0.044664465 5.1639023 0 0 0 0 0
12.657069 0.067662843 6.4532537 0 0 0 0 0
12.555836 0.0015699239 7.3045897 0 0 0 0 0
12.663875 0.063868709 8.181057 0 0 0 0 0
12.576087 0.074112996 9.2526693 0 0 0 0 0
12.600004 0.046727415 10.125987 0 0 0 0 0
12.694139 0.067887843 11.107533 0 0 0 0 0
12.547049 0.094469681 12.470419 0 0 0 0 0
12.665179 0.025825689 13.244225 0 0 0 0 0
12.654541 0.0052010319 14.089476 0 0 0 0 0
12.509766 0.084500499 15.312799 0 0 0 0 0
12.575326 0.063035116 16.151112 0 0 0 0 0
12.556627 0.090952866 17.158962 0 0 0 0 0
12.678464 0.072890267 18.478306 0 0 0 0 0
12.550886 0.010933715 19.348871 0 0 0 0 0
13.151955 0.060935576 0.082507588 0 0 0 0 0
13.002349 0.058004837 1.4219468 0 0 0 0 0
13.045362 0.081529357 2.3942952 0 0 0 0 0
13.033529 0.064118817 3.0234237 0 0 0 0 0
13.13122 0.041389409 4.0494289 0 0 0 0 0
13.16701 0.046271987 5.4719315 0 0 0 0 0
13.09213 0.083935075 6.287107 0 0 0 0 0
13.152575 0.012248909 7.2418714 0 0 0 0 0
13.016159 0.0014806895 8.1063223 0 0 0 0 0
13.007482 0.026923936 9.1609907 0 0 0 0 0
13.14703 0.0029010628 10.465669 0 0 0 0 0
13.180033 0.0040755928 11.255693 0 0 0 0 0
13.148811 0.026756737 12.16334 0 0 0 0 0
13.106529 0.043521579 13.483934 0 0 0 0 0
13.115899 0.0091314223 14.190881 0 0 0 0 0
13.135671 0.092636436 15.422241 0 0 0 0 0
13.124443 0.038701084 16.341917 0 0 0 0 0
13.039286 0.014988209 17.40316 0 0 0 0 0
13.136034 0.023067737 18.410564 0 0 0 0 0
13.178563 0.02680837 19.045183 0 0 0 0 0
13.542959 0.00032310467 0.05968938 0 0 0 0 0
13.529227 0.090339355 1.0800674 0 0 0 0 0
13.631504 0.064744972 2.213851 0 0 0 0 0
13.69684 0.018009629 3.431459 0 0 0 0 0
13.690413 0.075959012 4.4771161 0 0 0 0 0
13.566767 0.043794163 5.4402981 0 0 0 0 0
13.535663 0.0060155676 6.1338038 0 0 0 0 0
13.672429 0.025658343 7.2087445 0 0 0 0 0
13.633694 0.093675353 8.3240833 0 0 0 0 0
13.597919 0.082956865 9.4581251 0 0 0 0 0
13.615993 0.0044366084 10.459741 0 0 0 0 0
13.639869 0.019050146 11.411438 0 0 0 0 0
13.671896 0.084802315 12.235163 0 0 0 0 0
13.557436 0.083222479 13.325211 0 0 0 0 0
13.53002 0.078429453 14.205006 0 0 0 0 0
13.520866 0.01181264 15.423977 0 0 0 0 0
13.696985 0.029644033 16.454054 0 0 0 0 0
13.550507 0.015858704 17.082346 0 0 0 0 0
13.634005 0.082705565 18.050722 0 0 0 0 0
13.563638 0.031665295 19.465508 0 0 0 0 0
14.046888 0.089661844 0.48769015 0 0 0 0 0
14.030785 0.05959627 1.0829409 0 0 0 0 0
14.195359 0.045544162 2.0069525 0 0 0 0 0
14.089424 0.074262261 3.4230649 0 0 0 0 0
14.019508 0.089272141 4.3152122 0 0 0 0 0
14.101511 0.099705234 5.3742752 0 0 0 0 0
14.071101 0.098197982 6.0224953 0 0 0 0 0
14.052723 0.023451444 7.101789 0 0 0 0 0
14.085662 0.090453848 8.015317 0 0 0 0 0
14.10595 0.022272933 9.1736431 0 0 0 0 0
14.092154 0.045717061 10.121952 0 0 0 0 0
14.08723 0.061109342 11.419934 0 0 0 0 0
14.120406 0.058789123 12.147655 0 0 0 0 0
14.123187 0.0035013843 13.018966 0 0 0 0 0
14.092413 0.013255757 14.465326 0 0 0 0 0
14.018497 0.064011261 15.463853 0 0 0 0 0
14.168208 0.099562049 16.454844 0 0 0 0 0
14.177206 0.025923699 17.0721 0 0 0 0 0
14.017921 0.068754546 18.02437 0 0 0 0 0
14.024049 0.021729955 19.135735 0 0 0 0 0
14.593506 0.06780678 0.36431924 0 0 0 0 0
14.642287 0.011421641 1.169866 0 0 0 0 0
14.61026 0.071624681 2.4638116 0 0 0 0 0
14.669322 0.033218205 3.4813185 0 0 0 0 0
14.676908 0.079424702 4.0475974 0 0 0 0 0
14.663039 0.088673636 5.3676534 0 0 0 0 0
14.648581 0.072777629 6.3654637 0 0 0 0 0
14.630518 0.061380725 7.4950824 0 0 0 0 0
14.659358 0.070341624 8.3388548 0 0 0 0 0
14.669106 0.082365893 9.447505 0 0 0 0 0
14.523399 0.029118821 10.286539 0 0 0 0 0
14.669127 0.00026225773 11.343647 0 0 0 0 0
14.537073 0.055392466 12.201771 0 0 0 0 0
14.522597 0.040053613 13.367862 0 0 0 0 0
14.515125 0.028507959 14.264985 0 0 0 0 0
14.534163 0.010027641 15.208353 0 0 0 0 0
14.681225 0.084317908 16.072241 0 0 0 0 0
14.627411 0.049576718 17.379145 0 0 0 0 0
14.625443 0.02925553 18.230852 0 0 0 0 0
14.560986 0.013808196 19.142683 0 0 0 0 0
15.039988 0.025507649 0.28827646 0 0 0 0 0
15.154603 0.01007095 1.2895877 0 0 0 0 0
15.092062 0.028607437 2.06655 0 0 0 0 0
15.17277 0.03990623 3.266818 0 0 0 0 0
15.119915 0.047468714 4.409358 0 0 0 0 0
15.025908 0.064550653 5.459496 0 0 0 0 0
15.10925 0.055163287 6.3810859 0 0 0 0 0
15.138146 0.018868687 7.1289692 0 0 0 0 0
15.089804 0.081590533 8.2752466 0 0 0 0 0
15.182145 0.012083392 9.3442879 0 0 0 0 0
15.039218 0.032077208 10.471827 0 0 0 0 0
15.154529 0.0093787657 11.022181 0 0 0 0 0
15.070364 0.055409707 12.165218 0 0 0 0 0
15.096984 0.04179471 13.364749 0 0 0 0 0
15.003711 0.0017519783 14.102093 0 0 0 0 0
15.167455 0.014706217 15.424846 0 0 0 0 0
15.151253 0.069331065 16.200663 0 0 0 0 0
15.103687 0.038404133 17.295006 0 0 0 0 0
15.155274 0.083306164 18.202959 0 0 0 0 0
15.065373 0.074378774 19.263376 0 0 0 0 0
15.503089 0.09398786 0.42376164 0 0 0 0 0
15.691819 0.071252234 1.4706554 0 0 0 0 0
15.500691 0.0064341584 2.247704 0 0 0 0 0
15.566779 0.054926105 3.4566774 0 0 0 0 0
15.512678 0.056781687 4.4654374 0 0 0 0 0
15.553515 0.040508866 5.0389686 0 0 0 0 0
15.523454 0.016135281 6.3856239 0 0 0 0 0
15.603719 0.067978837 7.0776443 0 0 0 0 0
15.521722 0.045616247 8.494175 0 0 0 0 0
15.602905 0.078303054 9.3660688 0 0 0 0 0
15.508255 0.07984744 10.336008 0 0 0 0 0
15.67776 0.075757056 11.192269 0 0 0 0 0
15.666022 0.076102868 12.224441 0 0 0 0 0
15.565104 0.0094922967 13.499071 0 0 0 0 0
15.547774 0.015831579 14.282979 0 0 0 0 0
15.53395 0.042589426 15.485523 0 0 0 0 0
15.549537 0.054316483 16.0662 0 0 0 0 0
15.503787 0.0061760554 17.406094 0 0 0 0 0
15.534844 0.017036814 18.134176 0 0 0 0 0
15.532515 0.068489298 19.02569 0 0 0 0 0
16.178942 0.072616905 0.42492798 0 0 0 0 0
16.113346 0.061496835 1.3037133 0 0 0 0 0
16.190254 0.044507857 2.1842277 0 0 0 0 0
16.08003 0.077059679 3.231689 0 0 0 0 0
16.079659 0.00094701332 4.3108468 0 0 0 0 0
16.19285 0.017921833 5.0237942 0 0 0 0 0
16.187059 0.042690359 6.2953768 0 0 0 0 0
16.013538 0.044583648 7.3262568 0 0 0 0 0
16.175978 0.062005837 8.4114408 0 0 0 0 0
16.029648 0.078263089 9.2538872 0 0 0 0 0
16.039923 0.067734167 10.116972 0 0 0 0 0
16.009895 0.024406949 11.424456 0 0 0 0 0
16.13138 0.019533647 12.146996 0 0 0 0 0
16.005072 0.059548426 13.032293 0 0 0 0 0
16.097746 0.099377394 14.037029 0 0 0 0 0
16.022085 0.095802233 15.126638 0 0 0 0 0
16.031603 0.089331813 16.34009 0 0 0 0 0
16.149754 0.096101411 17.063007 0 0 0 0 0
16.080256 0.084089875 18.373037 0 0 0 0 0
16.044832 0.098913446 19.264353 0 0 0 0 0
16.646387 0.018875165 0.10302355 0 0 0 0 0
16.693176 0.023822485 1.2250583 0 0 0 0 0
16.662958 0.089512452 2.3227265 0 0 0 0 0
16.521757 0.092047945 3.1204686 0 0 0 0 0
16.534674 0.040921263 4.1173558 0 0 0 0 0
16.549486 0.051963966 5.0963669 0 0 0 0 0
16.600142 0.067765489 6.043026 0 0 0 0 0
16.536177 0.042642321 7.0235329 0 0 0 0 0
16.56138 0.082770512 8.4439821 0 0 0 0 0
16.510595 0.0051868879 9.438549 0 0 0 0 0
16.616337 0.078380734 10.032926 0 0 0 0 0
16.657545 0.074968964 11.152038 0 0 0 0 0
16.547569 0.056448411 12.0996 0 0 0 0 0
16.676661 0.067326941 13.05984 0 0 0 0 0
16.524847 0.084664218 14.264446 0 0 0 0 0
16.571789 0.0094072679 15.024266 0 0 0 0 0
16.610336 0.059477925 16.363092 0 0 0 0 0
16.627546 0.077566542 17.076305 0 0 0 0 0
16.636959 0.0082567725 18.490158 0 0 0 0 0
16.614553 0.013554454 19.016092 0 0 0 0 0
17.089972 0.071722671 0.40799564 0 0 0 0 0
17.103142 0.050495602 1.2828405 0 0 0 0 0
17.163958 0.074280187 2.0650826 0 0 0 0 0
17.003798 0.062610082 3.4017172 0 0 0 0 0
17.027733 0.075033709 4.3250384 0 0 0 0 0
17.133512 0.010928464 5.3720746 0 0 0 0 0
17.143219 0.066096574 6.1694641 0 0 0 0 0
17.088455 0.029869845 7.0572968 0 0 0 0 0
17.118977 0.098349698 8.0985804 0 0 0 0 0
17.11504 0.055625997 9.1663532 0 0 0 0 0
17.121477 0.00061219512 10.024966 0 0 0 0 0
17.084675 0.052183442 11.277445 0 0 0 0 0
17.197811 0.034162235 12.148846 0 0 0 0 0
17.023846 0.036061026 13.461896 0 0 0 0 0
17.184532 0.049927764 14.337065 0 0 0 0 0
17.114548 0.016683707 15.391706 0 0 0 0 0
17.063377 0.088292822 16.222189 0 0 0 0 0
17.131163 0.032520611 17.371538 0 0 0 0 0
17.154081 0.09200938 18.363287 0 0 0 0 0
17.193514 0.049529653 19.141417 0 0 0 0 0
17.560055 0.010268322 0.14447828 0 0 0 0 0
17.570042 0.052606117 1.4053955 0 0 0 0 0
17.681019 0.05151201 2.0762067 0 0 0 0 0
17.540558 0.063434407 3.2565117 0 0 0 0 0
17.525316 0.055700243 4.0061507 0 0 0 0 0
17.660141 0.012973741 5.0895691 0 0 0 0 0
17.616825 0.044662166 6.0310335 0 0 0 0 0
17.505699 0.010243443 7.1936364 0 0 0 0 0
17.654316 0.08728411 8.1536837 0 0 0 0 0
17.59963 0.084040947 9.4013319 0 0 0 0 0
17.656197 0.014068402 10.452673 0 0 0 0 0
17.513988 0.049089149 11.215704 0 0 0 0 0
17.676147 0.039598793 12.473264 0 0 0 0 0
17.50663 0.059877522 13.290436 0 0 0 0 0
17.609234 0.072535418 14.068937 0 0 0 0 0
17.611694 0.052606195 15.133805 0 0 0 0 0
17.647522 0.011018317 16.357117 0 0 0 0 0
17.659935 0.013868356 17.408333 0 0 0 0 0
17.53739 0.091026157 18.344755 0 0 0 0 0
17.598864 0.040841416 19.264959 0 0 0 0 0
18.059397 0.018940136 0.33530101 0 0 0 0 0
18.040464 0.025934514 1.0807468 0 0 0 0 0
18.126747 0.014007993 2.2787406 0 0 0 0 0
18.116053 0.01732281 3.0781283 0 0 0 0 0
18.032227 0.07193999 4.4408054 0 0 0 0 0
18.059801 0.027787298 5.2038364 0 0 0 0 0
18.113323 0.0015484393 6.2589278 0 0 0 0 0
18.05617 0.081516236 7.32827 0 0 0 0 0
18.019505 0.0002113048 8.2834005 0 0 0 0 0
18.157406 0.049643017 9.487608 0 0 0 0 0
18.063389 0.079341039 10.082308 0 0 0 0 0
18.19751 0.099573672 11.211981 0 0 0 0 0
18.029808 0.06294705 12.282021 0 0 0 0 0
18.141304 0.020973187 13.368635 0 0 0 0 0
18.172556 0.037086468 14.228334 0 0 0 0 0
18.148878 0.066987142 15.367271 0 0 0 0 0
18.030413 0.023648951 16.375013 0 0 0 0 0
18.133984 0.05173406 17.282595 0 0 0 0 0
18.065292 0.061485909 18.283651 0 0 0 0 0
18.178652 0.040188611 19.031866 0 0 0 0 0
18.673695 0.07188312 0.42857149 0 0 0 0 0
18.506618 0.070637822 1.4264399 0 0 0 0 0
18.59141 0.085541882 2.2411752 0 0 0 0 0
18.504219 0.056194089 3.3460412 0 0 0 0 0
18.651672 0.04247196 4.0314736 0 0 0 0 0
18.543007 0.016910916 5.3664093 0 0 0 0 0
18.689915 0.032117151 6.4846539 0 0 0 0 0
18.639921 0.099108979 7.2433243 0 0 0 0 0
18.552959 0.031754762 8.0507536 0 0 0 0 0
18.666418 0.021080647 9.2516966 0 0 0 0 0
18.679165 0.0079280548 10.111113 0 0 0 0 0
18.650595 0.01123712 11.464301 0 0 0 0 0
18.62117 0.056942355 12.392011 0 0 0 0 0
18.517641 0.05905176 13.172981 0 0 0 0 0
18.656057 0.034888137 14.385341 0 0 0 0 0
18.668646 0.056391478 15.469895 0 0 0 0 0
18.61521 0.051349085 16.130482 0 0 0 0 0
18.609072 0.0213094 17.126026 0 0 0 0 0
18.506401 0.047788654 18.2848 0 0 0 0 0
18.526703 0.030998155 19.390203 0 0 0 0 0
19.12738 0.020580921 0.42984369 0 0 0 0 0
19.171825 0.09587799 1.4860293 0 0 0 0 0
19.157547 0.056463026 2.270741 0 0 0 0 0
19.114351 0.065283105 3.066 0 0 0 0 0
19.183544 0.043311384 4.2404404 0 0 0 0 0
19.13768 0.027634352 5.022398 0 0 0 0 0
19.125639 0.08523915 6.2791433 0 0 0 0 0
19.177832 0.03977472 7.3856902 0 0 0 0 0
19.028242 0.042975128 8.1246338 0 0 0 0 0
19.142162 0.056326281 9.279624 0 0 0 0 0
19.098242 0.020016793 10.382529 0 0 0 0 0
19.070181 0.0059297746 11.361919 0 0 0 0 0
19.064592 0.084703051 12.144234 0 0 0 0 0
19.172888 0.041878507 13.47065 0 0 0 0 0
19.199287 0.033650227 14.187206 0 0 0 0 0
19.095465 0.0024901784 15.325378 0 0 0 0 0
19.104424 0.065309271 16.251574 0 0 0 0 0
19.016081 0.054224659 17.450447 0 0 0 0 0
19.170357 0.068345316 18.165323 0 0 0 0 0
19.02021 0.03942601 19.446955 0 0 0 0 0
19.632061 0.088547386 0.047038659 0 0 0 0 0
19.585072 0.0236375 1.0766876 0 0 0 0 0
19.52984 0.055933468 2.0002029 0 0 0 0 0
19.587534 0.042377651 3.2095954 0 0 0 0 0
19.575792 0.042021815 4.3778467 0 0 0 0 0
19.650677 0.08975409 5.3902974 0 0 0 0 0
19.580828 0.041965954 6.2168436 0 0 0 0 0
19.681458 0.050006501 7.487967 0 0 0 0 0
19.661636 0.035185128 8.3296938 0 0 0 0 0
19.527765 0.045290489 9.026824 0 0 0 0 0
19.506548 0.011320734 10.469561 0 0 0 0 0
19.525362 0.05385679 11.087749 0 0 0 0 0
19.556038 0.068776645 12.367415 0 0 0 0 0
19.556118 0.012543321 13.079304 0 0 0 0 0
19.639957 0.050439924 14.289412 0 0 0 0 0
19.591095 0.025777841 15.238183 0 0 0 0 0
19.547215 0.06619142 16.448013 0 0 0 0 0
19.633951 0.056919802 17.198046 0 0 0 0 0
19.629139 0.03773772 18.373972 0 0 0 0 0
19.561016 0.051620293 19.100424 0 0 0 0 0
0.054893803 0.071745478 0.15702717 0 0 0 0 0
0.067575045 0.059569709 1.4263111 0 0 0 0 0
0.095593795 0.09466894 2.2701943 0 0 0 0 0
0.023653105 0.041635096 3.332911 0 0 0 0 0
0.093631484 0.073356554 4.0851107 0 0 0 0 0
0.039179154 0.18912165 5.2139997 0 0 0 0 0
0.062786296 0.084394917 6.0449567 0 0 0 0 0
0.029762194 0.063600078 7.329556 0 0 0 0 0
0.094331488 0.14281824 8.0182447 0 0 0 0 0
0.024839502 0.092406675 9.2763462 0 0 0 0 0
0.060712241 0.13257608 10.050815 0 0 0 0 0
0.090497099 0.19538695 11.38869 0 0 0 0 0
0.037831567 0.16591139 12.366659 0 0 0 0 0
0.058649115 0.073989116 13.484924 0 0 0 0 0
0.095327392 0.0071534901 14.453082 0 0 0 0 0
0.089888215 0.04119771 15.148978 0 0 0 0 0
0.032085672 0.12679762 16.46291 0 0 0 0 0
0.063885711 0.14478034 17.111721 0 0 0 0 0
0.035294838 0.076602682 18.083378 0 0 0 0 0
0.081498176 0.083900452 19.207575 0 0 0 0 0
0.047786213 0.69443882 0.01113644 0 0 0 0 0
0.045479685 0.51476473 1.463622 0 0 0 0 0
0.028435379 0.67024082 2.1527798 0 0 0 0 0
0.065429941 0.61690444 3.4460254 0 0 0 0 0
0.069006681 0.6108743 4.4226623 0 0 0 0 0
0.08960554 0.59210706 5.3721032 0 0 0 0 0
0.053004343 0.65169817 6.0325317 0 0 0 0 0
0.025394514 0.63686192 7.3519602 0 0 0 0 0
0.063695855 0.68155003 8.0284348 0 0 0 0 0
0.0056460788 0.5149011 9.4359255 0 0 0 0 0
0.0028654784 0.59793115 10.174856 0 0 0 0 0
0.010247855 0.60238576 11.402255 0 0 0 0 0
0.095368251 0.58783454 12.044432 0 0 0 0 0
0.053820468 0.6489464 13.371581 0 0 0 0 0
0.0092576053 0.62735659 14.216615 0 0 0 0 0
0.055311143 0.59642148 15.164642 0 0 0 0 0
0.031160239 0.54526281 16.429665 0 0 0 0 0
0.099591188 0.55827552 17.056637 0 0 0 0 0
0.090366192 0.69905967 18.375116 0 0 0 0 0
0.097816736 0.5104335 19.403347 0 0 0 0 0
0.046782322 1.1848036 0.41767392 0 0 0 0 0
0.097975202 1.0547463 1.4689132 0 0 0 0 0
0.041892461 1.0156481 2.4457545 0 0 0 0 0
0.016365677 1.0334209 3.2148569 0 0 0 0 0
0.080043957 1.1820534 4.2611446 0 0 0 0 0
0.028254703 1.0686995 5.0377007 0 0 0 0 0
0.050886124 1.1345564 6.1935019 0 0 0 0 0
0.0800239 1.1064222 7.1914577 0 0 0 0 0
0.079553738 1.129077 8.1432886 0 0 0 0 0
0.084770478 1.0791234 9.1323719 0 0 0 0 0
0.077172294 1.040462 10.366284 0 0 0 0 0
0.0045454078 1.0075315 11.35616 0 0 0 0 0
0.012369496 1.1950969 12.065622 0 0 0 0 0
0.02907994 1.1733986 13.14745 0 0 0 0 0
0.020106677 1.0593413 14.04767 0 0 0 0 0
0.05445639 1.1637993 15.188944 0 0 0 0 0
0.021734616 1.1788795 16.443375 0 0 0 0 0
0.074945703 1.0562801 17.343494 0 0 0 0 0
0.039484162 1.1328633 18.241262 0 0 0 0 0
0.079045847 1.1901786 19.165115 0 0 0 0 0
0.099276841 1.5431277 0.050976571 0 0 0 0 0
0.003042616 1.6896412 1.0737036 0 0 0 0 0
0.00059103273 1.6321051 2.135551 0 0 0 0 0
0.087290339 1.658354 3.2809508 0 0 0 0 0
0.016961012 1.5173342 4.381484 0 0 0 0 0
0.098860644 1.5364025 5.1537662 0 0 0 0 0
0.088300392 1.61198 6.2624393 0 0 0 0 0
0.016440479 1.5893298 7.1371679 0 0 0 0 0
0.082872108 1.5267274 8.3345881 0 0 0 0 0
0.077961452 1.6232325 9.2298174 0 0 0 0 0
0.099525258 1.6892786 10.226202 0 0 0 0 0
0.094345853 1.5096692 11.241415 0 0 0 0 0
0.06039843 1.5391506 12.24437 0 0 0 0 0
0.039575446 1.593371 13.180821 0 0 0 0 0
0.048242588 1.5057514 14.265627 0 0 0 0 0
0.066443808 1.6583451 15.259931 0 0 0 0 0
0.022433814 1.5198516 16.201431 0 0 0 0 0
0.067098729 1.6248271 17.283634 0 0 0 0 0
0.080462456 1.6796943 18.197994 0 0 0 0 0
0.042078726 1.6135297 19.087803 0 0 0 0 0
0.036718011 2.0054567 0.085428603 0 0 0 0 0
0.041552611 2.0959375 1.0571579 0 0 0 0 0
0.061127931 2.1925035 2.3591499 0 0 0 0 0
0.0078134742 2.0902517 3.0570273 0 0 0 0 0
0.010689172 2.1625803 4.2982402 0 0 0 0 0
0.089861706 2.0688312 5.1304593 0 0 0 0 0
0.099787459 2.1728032 6.2426281 0 0 0 0 0
0.062201053 2.053376 7.0781221 0 0 0 0 0
0.052048184 2.1668298 8.4804344 0 0 0 0 0
0.0088130143 2.0460279 9.1908283 0 0 0 0 0
0.011541391 2.0811489 10.374418 0 0 0 0 0
0.059510153 2.1153202 11.082181 0 0 0 0 0
0.055761911 2.1381834 12.38782 0 0 0 0 0
0.00088770536 2.0818434 13.426888 0 0 0 0 0
0.08217787 2.1046543 14.480334 0 0 0 0 0
0.016593428 2.0239503 15.429643 0 0 0 0 0
0.0029950149 2.076134 16.428579 0 0 0 0 0
0.029683027 2.1731853 17.239586 0 0 0 0 0
0.013097942 2.0044341 18.499826 0 0 0 0 0
0.036111865 2.1966078 19.04389 0 0 0 0 0
0.076686248 2.5729389 0.10159788 0 0 0 0 0
0.034346353 2.522706 1.3991487 0 0 0 0 0
0.0034380313 2.5555785 2.1779583 0 0 0 0 0
0.04435971 2.5107067 3.1823967 0 0 0 0 0
0.09668684 2.6814618 4.093286 0 0 0 0 0
0.0086620003 2.6735954 5.1762533 0 0 0 0 0
0.046729002 2.6454525 6.1912284 0 0 0 0 0
0.03332166 2.6168842 7.3396435 0 0 0 0 0
0.035538711 2.5127182 8.4051332 0 0 0 0 0
0.033842601 2.5126486 9.0856924 0 0 0 0 0
0.070312068 2.530205 10.469124 0 0 0 0 0
0.081665106 2.5708442 11.140856 0 0 0 0 0
0.0094543388 2.5305035 12.158046 0 0 0 0 0
0.014807698 2.601687 13.379845 0 0 0 0 0
0.0055386559 2.6746454 14.363278 0 0 0 0 0
0.092336386 2.51196 15.406589 0 0 0 0 0
0.06506259 2.5824614 16.140234 0 0 0 0 0
0.023504728 2.6589525 17.306841 0 0 0 0 0
0.029863853 2.59481 18.484535 0 0 0 0 0
0.036188144 2.5568633 19.153748 0 0 0 0 0
0.05129062 3.0911403 0.005308561 0 0 0 0 0
0.086712673 3.0787897 1.4136341 0 0 0 0 0
0.0019644529 3.1351318 2.4609058 0 0 0 0 0
0.052807875 3.1983502 3.0349443 0 0 0 0 0
0.040130638 3.1502879 4.0626373 0 0 0 0 0
0.046110615 3.0955992 5.0243196 0 0 0 0 0
0.087341242 3.0582345 6.3496323 0 0 0 0 0
0.066817529 3.1143279 7.4671559 0 0 0 0 0
0.014222503 3.0370646 8.1164751 0 0 0 0 0
0.042654105 3.0308788 9.2974157 0 0 0 0 0
0.088224202 3.0923779 10.053869 0 0 0 0 0
0.027619045 3.0945015 11.487432 0 0 0 0 0
0.095184989 3.0599551 12.497254 0 0 0 0 0
0.094360061 3.0443172 13.261294 0 0 0 0 0
0.06950397 3.058295 14.461947 0 0 0 0 0
0.017303554 3.0833502 15.1925 0 0 0 0 0
0.04642082 3.0930779 16.129206 0 0 0 0 0
0.0035847698 3.0329309 17.463295 0 0 0 0 0
0.02211706 3.0197933 18.034407 0 0 0 0 0
0.037556402 3.0663834 19.247677 0 0 0 0 0
0.08374539 3.6853497 0.18879831 0 0 0 0 0
0.030996094 3.5068974 1.3268936 0 0 0 0 0
0.060973614 3.5018704 2.3028185 0 0 0 0 0
0.083132282 3.5007725 3.2746189 0 0 0 0 0
0.012279818 3.6052899 4.1221385 0 0 0 0 0
0.053954858 3.5900691 5.2086563 0 0 0 0 0
0.00049379369 3.6670692 6.4407606 0 0 0 0 0
0.016959215 3.5187519 7.4586844 0 0 0 0 0
0.026855847 3.5040696 8.0692692 0 0 0 0 0
0.060047545 3.5178323 9.2570515 0 0 0 0 0
0.052722447 3.6169031 10.175778 0 0 0 0 0
0.056171186 3.6924224 11.330759 0 0 0 0 0
0.057106424 3.6231799 12.135627 0 0 0 0 0
0.057492625 3.5443072 13.051289 0 0 0 0 0
0.010137652 3.6541548 14.112688 0 0 0 0 0
0.055172145 3.5030103 15.382462 0 0 0 0 0
0.038706712 3.5864727 16.384932 0 0 0 0 0
0.048082609 3.562777 17.469727 0 0 0 0 0
0.050117351 3.5462506 18.104006 0 0 0 0 0
0.059033446 3.5739586 19.404243 0 0 0 0 0
0.017485 4.1767793 0.16785614 0 0 0 0 0
0.013696218 4.0470905 1.4487121 0 0 0 0 0
0.075286143 4.1793942 2.2342441 0 0 0 0 0
0.097439773 4.0336452 3.0217073 0 0 0 0 0
0.074517153 4.0541606 4.0723953 0 0 0 0 0
0.076022252 4.0992355 5.3482561 0 0 0 0 0
0.019258633 4.0522203 6.04179 0 0 0 0 0
0.05064711 4.0061927 7.2822027 0 0 0 0 0
0.073772445 4.1940837 8.0327892 0 0 0 0 0
0.010751722 4.035686 9.3279572 0 0 0 0 0
0.099141315 4.1973834 10.415381 0 0 0 0 0
0.022686636 4.0645261 11.483863 0 0 0 0 0
0.012383761 4.0440106 12.360293 0 0 0 0 0
0.029206309 4.1377087 13.347492 0 0 0 0 0
0.056286566 4.1463914 14.220078 0 0 0 0 0
0.0059043476 4.1753497 15.100189 0 0 0 0 0
0.032014512 4.1146522 16.196484 0 0 0 0 0
0.035110857 4.1313682 17.449718 0 0 0 0 0
0.032152597 4.0442491 18.318581 0 0 0 0 0
0.049995571 4.0573649 19.372339 0 0 0 0 0
0.048687328 4.6885476 0.36804575 0 0 0 0 0
0.080950305 4.6547008 1.4814789 0 0 0 0 0
0.0029557054 4.6482458 2.0433977 0 0 0 0 0
0.071809933 4.5923634 3.1894293 0 0 0 0 0
0.045005634 4.5313601 4.4708619 0 0 0 0 0
0.032680441 4.6193914 5.0003839 0 0 0 0 0
0.090006508 4.6594672 6.1604567 0 0 0 0 0
0.055690538 4.5380607 7.3360109 0 0 0 0 0
0.077815153 4.5179477 8.4967737 0 0 0 0 0
0.0064976923 4.64538 9.2467518 0 0 0 0 0
0.00077160652 4.5943155 10.490189 0 0 0 0 0
0.078121893 4.5415339 11.394939 0 0 0 0 0
0.052244775 4.5341258 12.409719 0 0 0 0 0
0.098426402 4.5514846 13.268768 0 0 0 0 0
0.014106533 4.6272564 14.493796 0 0 0 0 0
0.07380233 4.6156011 15.157198 0 0 0 0 0
0.053536039 4.6157546 16.107231 0 0 0 0 0
0.072566301 4.6799374 17.385683 0 0 0 0 0
0.081540219 4.6143417 18.274759 0 0 0 0 0
0.05423025 4.6130509 19.307247 0 0 0 0 0
0.0013881108 5.0117517 0.31110579 0 0 0 0 0
0.022155121 5.0078268 1.2017152 0 0 0 0 0
0.039217919 5.165803 2.4629393 0 0 0 0 0
0.064960264 5.1296902 3.4550712 0 0 0 0 0
0.028588468 5.0371976 4.0256038 0 0 0 0 0
0.086389087 5.0347157 5.3946157 0 0 0 0 0
0.044266485 5.0975952 6.1622958 0 0 0 0 0
0.034235161 5.1404877 7.0251274 0 0 0 0 0
0.09140598 5.0947609 8.4328279 0 0 0 0 0
0.047931544 5.0046644 9.2039795 0 0 0 0 0
0.053807415 5.127564 10.21092 0 0 0 0 0
0.057720918 5.0520062 11.321695 0 0 0 0 0
0.040622368 5.1326923 12.017785 0 0 0 0 0
0.0054674689 5.1178679 13.342587 0 0 0 0 0
0.024066161 5.0998964 14.485529 0 0 0 0 0
0.041424073 5.1101379 15.417475 0 0 0 0 0
0.090221651 5.0679841 16.138807 0 0 0 0 0
0.060465395 5.1329021 17.309982 0 0 0 0 0
0.0078458488 5.1429534 18.267014 0 0 0 0 0
0.010178162 5.1160846 19.00667 0 0 0 0 0
0.073960021 5.6976762 0.27570736 0 0 0 0 0
0.099963054 5.5820446 1.064312 0 0 0 0 0
0.066309124 5.5107226 2.2674239 0 0 0 0 0
0.025243035 5.5178366 3.2947612 0 0 0 0 0
0.075191185 5.6548715 4.415092 0 0 0 0 0
0.030260092 5.6490831 5.1222124 0 0 0 0 0
0.064252101 5.6160727 6.0733204 0 0 0 0 0
0.030703247 5.6715956 7.3756475 0 0 0 0 0
0.0021798331 5.5955887 8.4148769 0 0 0 0 0
0.060222078 5.5023937 9.4657679 0 0 0 0 0
0.059060238 5.5050616 10.335567 0 0 0 0 0
8.2420745e-05 5.6153445 11.335382 0 0 0 0 0
0.0054437472 5.6410694 12.166928 0 0 0 0 0
0.014362137 5.548039 13.293144 0 0 0 0 0
0.091797851 5.6659436 14.1691 0 0 0 0 0
0.066339366 5.6319804 15.3204 0 0 0 0 0
0.024375763 5.6808653 16.141661 0 0 0 0 0
0.010173531 5.5101933 17.295177 0 0 0 0 0
0.057967834 5.6604524 18.306076 0 0 0 0 0
0.059164654 5.6264029 19.107187 0 0 0 0 0
0.061695535 6.11271 0.40248761 0 0 0 0 0
0.019367889 6.046937 1.4028997 0 0 0 0 0
0.089902632 6.1810904 2.4301186 0 0 0 0 0
0.013922128 6.0478616 3.001929 0 0 0 0 0
0.096893854 6.1651192 4.4609184 0 0 0 0 0
0.062883958 6.0327592 5.2926154 0 0 0 0 0
0.053316522 6.1609192 6.414494 0 0 0 0 0
0.058413196 6.0175834 7.4653616 0 0 0 0 0
0.038639378 6.135654 8.2552013 0 0 0 0 0
0.0018409106 6.0580845 9.0510244 0 0 0 0 0
0.05819596 6.1009593 10.359502 0 0 0 0 0
0.081664547 6.061954 11.456341 0 0 0 0 0
0.072209731 6.0231142 12.405854 0 0 0 0 0
0.096140623 6.1951613 13.475465 0 0 0 0 0
0.078700267 6.1959333 14.459934 0 0 0 0 0
0.095079847 6.1803007 15.274354 0 0 0 0 0
0.075539447 6.0973468 16.040937 0 0 0 0 0
0.08433117 6.0631442 17.333002 0 0 0 0 0
0.052158266 6.0492887 18.026199 0 0 0 0 0
0.08120057 6.1513691 19.035404 0 0 0 0 0
0.031680156 6.6717792 0.32638398 0 0 0 0 0
0.062657267 6.6155796 1.2347068 0 0 0 0 0
0.074214324 6.5981164 2.0957553 0 0 0 0 0
0.071795069 6.5604582 3.0764585 0 0 0 0 0
0.069761649 6.5506439 4.4699597 0 0 0 0 0
0.059911907 6.5346179 5.4453592 0 0 0 0 0
0.0085852128 6.6443596 6.3230562 0 0 0 0 0
0.040157329 6.6607342 7.2447119 0 0 0 0 0
0.06480179 6.593935 8.0055037 0 0 0 0 0
0.040486418 6.6044149 9.4115067 0 0 0 0 0
0.026375884 6.6185765 10.069907 0 0 0 0 0
0.084165715 6.5491304 11.383193 0 0 0 0 0
0.0332238 6.643013 12.254265 0 0 0 0 0
0.06345278 6.6813149 13.11324 0 0 0 0 0
0.088774763 6.5118985 14.462049 0 0 0 0 0
0.0060836235 6.6998825 15.261608 0 0 0 0 0
0.078263298 6.6780262 16.304535 0 0 0 0 0
0.058630329 6.6072483 17.005322 0 0 0 0 0
0.0055979053 6.5051332 18.32933 0 0 0 0 0
0.0578054 6.5073347 19.031761 0 0 0 0 0
0.017093737 7.1719375 0.16364124 0 0 0 0 0
0.041658863 7.1999002 1.0844698 0 0 0 0 0
0.013165332 7.1531773 2.2505889 0 0 0 0 0
0.0038228729 7.0548835 3.0678527 0 0 0 0 0
0.0097721089 7.1001797 4.0117264 0 0 0 0 0
0.0097133098 7.0849991 5.0421448 0 0 0 0 0
0.098726317 7.1896424 6.4334612 0 0 0 0 0
0.052350588 7.1114559 7.226613 0 0 0 0 0
0.054917276 7.113584 8.2546024 0 0 0 0 0
0.058584649 7.0453162 9.0436296 0 0 0 0 0
0.04455328 7.0580206 10.129098 0 0 0 0 0
0.04450332 7.1234775 11.337393 0 0 0 0 0
0.021092035 7.1572652 12.403219 0 0 0 0 0
0.048533745 7.0575008 13.422334 0 0 0 0 0
0.098623522 7.0846419 14.471194 0 0 0 0 0
0.04112301 7.0893326 15.01976 0 0 0 0 0
0.035944112 7.1061902 16.013391 0 0 0 0 0
0.091672048 7.0795751 17.275145 0 0 0 0 0
0.048464134 7.1702199 18.049732 0 0 0 0 0
0.071122169 7.0720611 19.342655 0 0 0 0 0
0.00013257269 7.5895128 0.065421067 0 0 0 0 0
0.061871223 7.6411519 1.2879376 0 0 0 0 0
0.040503841 7.5761089 2.3933978 0 0 0 0 0
0.069254227 7.5373964 3.1360664 0 0 0 0 0
0.011575159 7.50633 4.1291842 0 0 0 0 0
0.056241404 7.6948075 5.3347993 0 0 0 0 0
0.0093365852 7.5027118 6.0145197 0 0 0 0 0
0.04912401 7.5080686 7.4728799 0 0 0 0 0
0.034234002 7.6181264 8.2152004 0 0 0 0 0
0.070264474 7.6380191 9.0708113 0 0 0 0 0
0.015020825 7.5750809 10.071474 0 0 0 0 0
0.085596792 7.6012492 11.380831 0 0 0 0 0
0.023651244 7.5164247 12.083349 0 0 0 0 0
0.042349506 7.6737838 13.429621 0 0 0 0 0
0.045514449 7.5282102 14.487496 0 0 0 0 0
0.04291819 7.5798841 15.268703 0 0 0 0 0
0.044274036 7.5138035 16.315386 0 0 0 0 0
0.048308305 7.5196114 17.061007 0 0 0 0 0
0.0073715858 7.5087633 18.232176 0 0 0 0 0
0.076381147 7.5948439 19.0835 0 0 0 0 0
0.013921645 8.123168 0.15860312 0 0 0 0 0
0.064546354 8.1517582 1.0865871 0 0 0 0 0
0.0727586 8.1040907 2.2048433 0 0 0 0 0
0.05965041 8.1374302 3.4165907 0 0 0 0 0
0.073755533 8.1092787 4.1441631 0 0 0 0 0
0.013697485 8.1042776 5.3587542 0 0 0 0 0
0.02059928 8.0117588 6.0801244 0 0 0 0 0
0.030405024 8.1379137 7.3216658 0 0 0 0 0
0.034786765 8.1623163 8.3585234 0 0 0 0 0
0.082208633 8.0551863 9.2404299 0 0 0 0 0
0.04379281 8.0885859 10.310038 0 0 0 0 0
0.019671859 8.1520271 11.13277 0 0 0 0 0
0.071717009 8.1866627 12.496562 0 0 0 0 0
0.040432096 8.0685997 13.294814 0 0 0 0 0
0.095071353 8.0352354 14.163592 0 0 0 0 0
0.047209933 8.0929012 15.23208 0 0 0 0 0
0.053089242 8.0364027 16.335075 0 0 0 0 0
0.022045869 8.0684528 17.487101 0 0 0 0 0
0.0032038167 8.1971188 18.161036 0 0 0 0 0
0.030797089 8.1405277 19.072079 0 0 0 0 0
0.075090155 8.5367002 0.29104212 0 0 0 0 0
0.051103853 8.6607151 1.3894014 0 0 0 0 0
0.044434961 8.5138226 2.2479863 0 0 0 0 0
0.078734733 8.5124474 3.4501469 0 0 0 0 0
0.096352659 8.630374 4.4255037 0 0 0 0 0
0.042803206 8.6958103 5.1615534 0 0 0 0 0
0.061004557 8.5886421 6.4269996 0 0 0 0 0
0.095230751 8.5226727 7.0372291 0 0 0 0 0
0.093790099 8.5175133 8.0532484 0 0 0 0 0
0.064054176 8.5819273 9.2072334 0 0 0 0 0
0.082404137 8.6107578 10.082685 0 0 0 0 0
0.062761627 8.5271749 11.338203 0 0 0 0 0
0.069673002 8.6829357 12.060378 0 0 0 0 0
0.075896867 8.5821304 13.454052 0 0 0 0 0
0.041083615 8.5621891 14.435815 0 0 0 0 0
0.038988791 8.5323906 15.149832 0 0 0 0 0
0.083309874 8.5970116 16.454855 0 0 0 0 0
0.094646141 8.567812 17.431007 0 0 0 0 0
0.0034026266 8.5827026 18.399958 0 0 0 0 0
0.044366084 8.604002 19.22023 0 0 0 0 0
0.099745147 9.1868954 0.13224985 0 0 0 0 0
0.013332635 9.019969 1.446058 0 0 0 0 0
0.0048004026 9.1552505 2.2944231 0 0 0 0 0
0.045865458 9.1794024 3.1739073 0 0 0 0 0
0.076959901 9.1610231 4.3793254 0 0 0 0 0
0.093155079 9.1353493 5.0742693 0 0 0 0 0
0.041660931 9.195282 6.490819 0 0 0 0 0
0.075566694 9.1772232 7.4640493 0 0 0 0 0
0.016918249 9.1496267 8.4810629 0 0 0 0 0
0.068919405 9.1096096 9.2028933 0 0 0 0 0
0.062367249 9.1977015 10.201619 0 0 0 0 0
0.07235194 9.050601 11.268282 0 0 0 0 0
0.04997734 9.0290241 12.292284 0 0 0 0 0
0.039678399 9.1467934 13.021611 0 0 0 0 0
0.020189852 9.0163565 14.406411 0 0 0 0 0
0.087864354 9.168087 15.372186 0 0 0 0 0
0.08550512 9.197794 16.08049 0 0 0 0 0
0.074116699 9.1941223 17.458324 0 0 0 0 0
0.048929848 9.1797419 18.042915 0 0 0 0 0
0.0037346599 9.1721668 19.387512 0 0 0 0 0
0.0025853058 9.5533237 0.19934878 0 0 0 0 0
0.027885919 9.6339712 1.0611085 0 0 0 0 0
0.042398132 9.5412846 2.3109951 0 0 0 0 0
0.015794938 9.6581974 3.0093873 0 0 0 0 0
0.023973208 9.6668425 4.1103363 0 0 0 0 0
0.0080165584 9.6294069 5.0496583 0 0 0 0 0
0.0069137798 9.5782814 6.4771838 0 0 0 0 0
0.0039747497 9.6104774 7.3477674 0 0 0 0 0
0.093845613 9.5938072 8.0924168 0 0 0 0 0
0.079929002 9.6109734 9.1110897 0 0 0 0 0
0.0065909848 9.5659781 10.124017 0 0 0 0 0
0.073576726 9.6457176 11.263446 0 0 0 0 0
0.094218843 9.6701612 12.475436 0 0 0 0 0
0.073317751 9.5945597 13.054411 0 0 0 0 0
0.056738906 9.5983143 14.174277 0 0 0 0 0
0.021442208 9.6424484 15.21436 0 0 0 0 0
0.060582735 9.6623116 16.24893 0 0 0 0 0
0.01582142 9.6531858 17.268803 0 0 0 0 0
0.062724963 9.5922928 18.238031 0 0 0 0 0
0.018211603 9.6292591 19.137676 0 0 0 0 0
0.051200755 10.173695 0.17063083 0 0 0 0 0
0.024059664 10.023301 1.0385144 0 0 0 0 0
0.009140268 10.12868 2.0096087 0 0 0 0 0
0.056419902 10.118855 3.3761973 0 0 0 0 0
0.005576977 10.140619 4.1598921 0 0 0 0 0
0.076801337 10.01033 5.2671032 0 0 0 0 0
0.057957333 10.096074 6.0700169 0 0 0 0 0
0.034550093 10.195646 7.1491237 0 0 0 0 0
0.080696322 10.103167 8.4627485 0 0 0 0 0
0.045325864 10.19838 9.0538063 0 0 0 0 0
0.03217338 10.05345 10.309811 0 0 0 0 0
0.043824177 10.121702 11.430109 0 0 0 0 0
0.0081641739 10.137108 12.47581 0 0 0 0 0
0.067591503 10.140951 13.25791 0 0 0 0 0
0.037901107 10.091431 14.285794 0 0 0 0 0
0.043066185 10.155387 15.169801 0 0 0 0 0
0.091103308 10.062228 16.459587 0 0 0 0 0
0.088926248 10.090235 17.132338 0 0 0 0 0
0.04050976 10.149884 18.03582 0 0 0 0 0
0.039699454 10.134984 19.262449 0 0 0 0 0
0.066424325 10.656507 0.42331606 0 0 0 0 0
0.027275363 10.580431 1.142437 0 0 0 0 0
0.095829286 10.552474 2.1832578 0 0 0 0 0
0.066304937 10.542798 3.0212154 0 0 0 0 0
0.012020083 10.645962 4.210721 0 0 0 0 0
0.089713618 10.56028 5.4260516 0 0 0 0 0
0.020827752 10.628201 6.3815684 0 0 0 0 0
0.065945223 10.612036 7.3261995 0 0 0 0 0
0.040887456 10.66497 8.0287485 0 0 0 0 0
0.0083794026 10.679298 9.2272453 0 0 0 0 0
0.086632662 10.584278 10.059367 0 0 0 0 0
0.026848 10.553604 11.195745 0 0 0 0 0
0.05308507 10.610579 12.174891 0 0 0 0 0
0.074484147 10.683883 13.006415 0 0 0 0 0
0.047465134 10.692369 14.066516 0 0 0 0 0
0.077605009 10.576657 15.015083 0 0 0 0 0
0.041705098 10.547078 16.119223 0 0 0 0 0
0.097722746 10.699705 17.448948 0 0 0 0 0
0.080208033 10.630185 18.153385 0 0 0 0 0
0.069857292 10.641685 19.195282 0 0 0 0 0
0.011996383 11.032582 0.12844625 0 0 0 0 0
0.038798682 11.05633 1.2626863 0 0 0 0 0
0.094088376 11.134627 2.0281117 0 0 0 0 0
0.086029626 11.004583 3.4005322 0 0 0 0 0
0.082213938 11.00715 4.1378579 0 0 0 0 0
0.02054243 11.033755 5.0258832 0 0 0 0 0
0.044081278 11.039789 6.2344084 0 0 0 0 0
0.04393379 11.087478 7.2230225 0 0 0 0 0
0.0090262238 11.067058 8.1240625 0 0 0 0 0
0.079868332 11.128412 9.4733486 0 0 0 0 0
0.096159562 11.006525 10.033331 0 0 0 0 0
0.024324251 11.057903 11.227324 0 0 0 0 0
0.091637753 11.162978 12.197766 0 0 0 0 0
0.093929358 11.174223 13.127914 0 0 0 0 0
0.097503997 11.134436 14.038984 0 0 0 0 0
0.014381769 11.189579 15.141696 0 0 0 0 0
0.034276284 11.199932 16.362103 0 0 0 0 0
0.078015298 11.093696 17.081772 0 0 0 0 0
0.011544032 11.182904 18.126904 0 0 0 0 0
0.075749949 11.03253 19.026245 0 0 0 0 0
0.079012454 11.521869 0.0070420597 0 0 0 0 0
0.0079642031 11.535201 1.1286633 0 0 0 0 0
0.089453205 11.626131 2.0868521 0 0 0 0 0
0.076564535 11.505238 3.0564988 0 0 0 0 0
0.043782331 11.556403 4.0440187 0 0 0 0 0
0.038571738 11.571997 5.1159277 0 0 0 0 0
0.038537756 11.628675 6.2873092 0 0 0 0 0
0.085385486 11.573516 7.1773858 0 0 0 0 0
0.076837674 11.606225 8.2351055 0 0 0 0 0
0.093102358 11.656986 9.1138554 0 0 0 0 0
0.0040368317 11.667483 10.008918 0 0 0 0 0
0.021637473 11.6703 11.048738 0 0 0 0 0
0.084702969 11.521766 12.496005 0 0 0 0 0
0.087321684 11.556506 13.378827 0 0 0 0 0
0.01552326 11.579106 14.097739 0 0 0 0 0
0.051521622 11.596713 15.290598 0 0 0 0 0
0.015859209 11.643085 16.483286 0 0 0 0 0
0.052617293 11.558008 17.410213 0 0 0 0 0
0.0057296702 11.628963 18.294403 0 0 0 0 0
0.084222563 11.523005 19.259914 0 0 0 0 0
0.067964301 12.068547 0.28009838 0 0 0 0 0
0.053114451 12.072114 1.3882858 0 0 0 0 0
0.063997261 12.09161 2.3118005 0 0 0 0 0
0.092250496 12.090012 3.248409 0 0 0 0 0
0.031803496 12.041542 4.3260255 0 0 0 0 0
0.08016026 12.080638 5.0836334 0 0 0 0 0
0.051702566 12.196877 6.1629295 0 0 0 0 0
0.080706693 12.190192 7.4260159 0 0 0 0 0
0.045187935 12.154278 8.4546642 0 0 0 0 0
0.056690328 12.072039 9.3757772 0 0 0 0 0
0.090963818 12.176004 10.215599 0 0 0 0 0
0.027020853 12.088043 11.481171 0 0 0 0 0
0.07282564 12.043358 12.301157 0 0 0 0 0
0.017831389 12.168077 13.262409 0 0 0 0 0
0.03860262 12.067442 14.421427 0 0 0 0 0
0.078921676 12.197852 15.322228 0 0 0 0 0
0.077360287 12.031305 16.080742 0 0 0 0 0
0.072456203 12.096477 17.484274 0 0 0 0 0
0.049594931 12.066883 18.210215 0 0 0 0 0
0.08561413 12.048749 19.493666 0 0 0 0 0
0.073616169 12.699059 0.44848508 0 0 0 0 0
0.01763789 12.585299 1.0835893 0 0 0 0 0
0.039316751 12.577767 2.4477177 0 0 0 0 0
0.023355724 12.698231 3.0368745 0 0 0 0 0
0.057076495 12.603194 4.2298875 0 0 0 0 0
0.05600233 12.571765 5.124496 0 0 0 0 0
0.071654841 12.500656 6.0112972 0 0 0 0 0
0.019893251 12.532953 7.3735785 0 0 0 0 0
0.053334843 12.526663 8.1215534 0 0 0 0 0
0.077709295 12.610748 9.0496235 0 0 0 0 0
0.077239163 12.608215 10.417705 0 0 0 0 0
0.019888747 12.587609 11.005894 0 0 0 0 0
0.058772497 12.621045 12.202477 0 0 0 0 0
0.057887681 12.600132 13.319257 0 0 0 0 0
0.009484781 12.614882 14.104639 0 0 0 0 0
0.045367301 12.506837 15.38465 0 0 0 0 0
0.045695495 12.556635 16.242926 0 0 0 0 0
0.062171943 12.561154 17.342392 0 0 0 0 0
0.075503327 12.510585 18.109066 0 0 0 0 0
0.030877581 12.559207 19.497612 0 0 0 0 0
0.08498504 13.079056 0.38380754 0 0 0 0 0
0.02878952 13.046138 1.4832513 0 0 0 0 0
0.089311868 13.048495 2.2771139 0 0 0 0 0
0.03937773 13.129487 3.0665522 0 0 0 0 0
0.096818492 13.057189 4.113976 0 0 0 0 0
0.00023677349 13.099045 5.3408127 0 0 0 0 0
0.028554251 13.052905 6.0692902 0 0 0 0 0
0.059131216 13.150075 7.3801498 0 0 0 0 0
0.064423867 13.087031 8.2576666 0 0 0 0 0
0.094027132 13.130657 9.4120541 0 0 0 0 0
0.033555146 13.129703 10.33698 0 0 0 0 0
0.056624085 13.083225 11.480927 0 0 0 0 0
0.080871835 13.076526 12.427486 0 0 0 0 0
0.045615144 13.187371 13.124375 0 0 0 0 0
0.074209742 13.013992 14.108467 0 0 0 0 0
0.023732128 13.059583 15.109652 0 0 0 0 0
0.050184619 13.195908 16.252422 0 0 0 0 0
0.025222069 13.023623 17.048079 0 0 0 0 0
0.06873773 13.175683 18.370197 0 0 0 0 0
0.034066431 13.07875 19.340334 0 0 0 0 0
0.098917492 13.543571 0.0081094522 0 0 0 0 0
0.040530052 13.678364 1.2912298 0 0 0 0 0
0.078792877 13.670734 2.1955891 0 0 0 0 0
0.072478458 13.641728 3.4236648 0 0 0 0 0
0.079474464 13.691479 4.2947135 0 0 0 0 0
0.0092656929 13.534866 5.4133739 0 0 0 0 0
0.0072194352 13.578727 6.1642971 0 0 0 0 0
0.019031188 13.679695 7.2904077 0 0 0 0 0
0.006872891 13.698927 8.1340961 0 0 0 0 0
0.046247866 13.647006 9.3044281 0 0 0 0 0
0.068033703 13.583139 10.299016 0 0 0 0 0
0.05721543 13.586384 11.001666 0 0 0 0 0
0.042582575 13.502875 12.395631 0 0 0 0 0
0.013447004 13.581111 13.258022 0 0 0 0 0
0.0091864485 13.550577 14.155396 0 0 0 0 0
0.026619399 13.668463 15.201723 0 0 0 0 0
0.065982625 13.633812 16.237822 0 0 0 0 0
0.055830389 13.699531 17.332977 0 0 0 0 0
0.055293899 13.615694 18.367342 0 0 0 0 0
0.028797016 13.669333 19.098581 0 0 0 0 0
0.070366874 14.091104 0.43874896 0 0 0 0 0
0.013558629 14.01071 1.2248261 0 0 0 0 0
0.014996357 14.011376 2.4377389 0 0 0 0 0
0.055551898 14.169629 3.0049739 0 0 0 0 0
0.080840394 14.072838 4.0509062 0 0 0 0 0
0.06507159 14.134996 5.1840034 0 0 0 0 0
0.03197762 14.015685 6.0139165 0 0 0 0 0
0.031743106 14.110814 7.2930684 0 0 0 0 0
0.089590117 14.044004 8.0695381 0 0 0 0 0
0.074256368 14.190941 9.2135229 0 0 0 0 0
0.019808309 14.030373 10.065357 0 0 0 0 0
0.025163418 14.005873 11.13315 0 0 0 0 0
0.030851748 14.095803 12.208132 0 0 0 0 0
0.015666176 14.070899 13.485891 0 0 0 0 0
0.052085154 14.072888 14.390094 0 0 0 0 0
0.019583147 14.09325 15.215451 0 0 0 0 0
0.027425846 14.166852 16.37534 0 0 0 0 0
0.082832687 14.172419 17.034056 0 0 0 0 0
0.0048348624 14.089645 18.482006 0 0 0 0 0
0.00030525803 14.117461 19.353287 0 0 0 0 0
0.015491744 14.502871 0.45232916 0 0 0 0 0
0.01842802 14.529013 1.0781462 0 0 0 0 0
0.066329516 14.582273 2.2324049 0 0 0 0 0
0.0017788043 14.665526 3.3107359 0 0 0 0 0
0.03822289 14.659883 4.0711617 0 0 0 0 0
0.084848218 14.61592 5.1690774 0 0 0 0 0
0.068274193 14.502101 6.3062067 0 0 0 0 0
0.054483443 14.652237 7.2203703 0 0 0 0 0
0.09930636 14.665859 8.244544 0 0 0 0 0
0.058036827 14.658661 9.2460709 0 0 0 0 0
0.059471868 14.599977 10.323529 0 0 0 0 0
0.073978372 14.580908 11.415669 0 0 0 0 0
0.015114948 14.612166 12.247317 0 0 0 0 0
0.097877964 14.505128 13.256211 0 0 0 0 0
0.077819318 14.629422 14.447326 0 0 0 0 0
0.035779394 14.657887 15.371567 0 0 0 0 0
0.036829792 14.525518 16.212938 0 0 0 0 0
0.012948123 14.648001 17.485355 0 0 0 0 0
0.095877498 14.536149 18.481886 0 0 0 0 0
0.075208038 14.633966 19.27207 0 0 0 0 0
0.025196096 15.032395 0.069430113 0 0 0 0 0
0.065649994 15.161807 1.439322 0 0 0 0 0
0.021733141 15.128075 2.0148966 0 0 0 0 0
0.024297288 15.027001 3.0042865 0 0 0 0 0
0.089008614 15.129486 4.393383 0 0 0 0 0
0.067952268 15.108416 5.0722799 0 0 0 0 0
0.080711409 15.057043 6.2564292 0 0 0 0 0
0.05471186 15.142218 7.3211699 0 0 0 0 0
0.072786331 15.136359 8.3005571 0 0 0 0 0
0.039769679 15.129114 9.1765976 0 0 0 0 0
0.05596716 15.037943 10.302578 0 0 0 0 0
0.036870509 15.065715 11.130828 0 0 0 0 0
0.00090776058 15.041444 12.239493 0 0 0 0 0
0.014408424 15.047402 13.36098 0 0 0 0 0
0.07915131 15.049117 14.306023 0 0 0 0 0
0.033359297 15.00647 15.145784 0 0 0 0 0
0.061880611 15.035382 16.049341 0 0 0 0 0
0.03298945 15.137954 17.322901 0 0 0 0 0
0.001169259 15.066422 18.186832 0 0 0 0 0
0.065726392 15.186645 19.385681 0 0 0 0 0
0.084697679 15.557283 0.16551651 0 0 0 0 0
0.017554991 15.678314 1.349869 0 0 0 0 0
0.038276695 15.530645 2.3544078 0 0 0 0 0
0.061977733 15.626443 3.42645 0 0 0 0 0
0.08653608 15.570835 4.3222065 0 0 0 0 0
0.089771047 15.693244 5.4890032 0 0 0 0 0
0.0074620275 15.551558 6.2984061 0 0 0 0 0
0.076438814 15.571294 7.4633532 0 0 0 0 0
0.009649531 15.500455 8.4691992 0 0 0 0 0
0.0029716743 15.575188 9.2978315 0 0 0 0 0
0.031613283 15.52946 10.22132 0 0 0 0 0
0.020770449 15.595666 11.309095 0 0 0 0 0
0.036093168 15.535614 12.000479 0 0 0 0 0
0.099314585 15.677377 13.310367 0 0 0 0 0
0.03473198 15.647957 14.243048 0 0 0 0 0
0.031353973 15.576839 15.191902 0 0 0 0 0
0.057132833 15.572441 16.229214 0 0 0 0 0
0.092779964 15.691803 17.111406 0 0 0 0 0
0.093007229 15.677145 18.159655 0 0 0 0 0
0.030600969 15.664824 19.174513 0 0 0 0 0
0.045330852 16.083958 0.33257928 0 0 0 0 0
0.093164034 16.172485 1.4364315 0 0 0 0 0
0.01097103 16.096123 2.1168973 0 0 0 0 0
0.099659599 16.096313 3.1134703 0 0 0 0 0
0.073638156 16.020462 4.2871304 0 0 0 0 0
0.012058024 16.11768 5.4439001 0 0 0 0 0
0.048278488 16.194441 6.2295642 0 0 0 0 0
0.044180155 16.086126 7.1934643 0 0 0 0 0
0.032752477 16.13069 8.1585007 0 0 0 0 0
0.015164715 16.194551 9.3115053 0 0 0 0 0
0.057143264 16.064356 10.038159 0 0 0 0 0
0.043385796 16.197388 11.00398 0 0 0 0 0
0.091447316 16.171961 12.058835 0 0 0 0 0
0.039604504 16.018719 13.057133 0 0 0 0 0
0.049835093 16.064108 14.425323 0 0 0 0 0
0.0086751664 16.178959 15.485614 0 0 0 0 0
0.0058957674 16.156519 16.227005 0 0 0 0 0
0.04895892 16.048346 17.447906 0 0 0 0 0
0.014303449 16.125731 18.11167 0 0 0 0 0
0.011578875 16.189131 19.187492 0 0 0 0 0
0.043756876 16.613733 0.47320899 0 0 0 0 0
0.042450733 16.628996 1.190138 0 0 0 0 0
0.028430898 16.630589 2.1473746 0 0 0 0 0
0.037790533 16.654121 3.345397 0 0 0 0 0
0.069844231 16.676975 4.0945725 0 0 0 0 0
0.059323959 16.647104 5.1379485 0 0 0 0 0
0.037583709 16.64135 6.1674271 0 0 0 0 0
0.061756294 16.532152 7.4122219 0 0 0 0 0
0.024621695 16.511314 8.4837389 0 0 0 0 0
0.019187134 16.555983 9.0416336 0 0 0 0 0
0.076053582 16.63098 10.260418 0 0 0 0 0
0.040551897 16.620264 11.472672 0 0 0 0 0
0.0058461078 16.69632 12.114826 0 0 0 0 0
0.082907245 16.555269 13.303779 0 0 0 0 0
0.071394905 16.693428 14.153 0 0 0 0 0
0.044947244 16.531256 15.449619 0 0 0 0 0
0.015622286 16.586435 16.137539 0 0 0 0 0
0.031698525 16.653406 17.44632 0 0 0 0 0
0.037356105 16.618296 18.069427 0 0 0 0 0
0.065347508 16.611792 19.165363 0 0 0 0 0
0.03083745 17.128445 0.045631703 0 0 0 0 0
0.09096919 17.032612 1.2483912 0 0 0 0 0
0.089128532 17.021681 2.2776217 0 0 0 0 0
0.016762782 17.06761 3.192158 0 0 0 0 0
0.013476452 17.189121 4.0491323 0 0 0 0 0
0.029104631 17.050322 5.2738686 0 0 0 0 0
0.072322488 17.03017 6.3519802 0 0 0 0 0
0.049025785 17.085184 7.0104728 0 0 0 0 0
0.0081734518 17.063713 8.1972532 0 0 0 0 0
0.064068928 17.091484 9.0239906 0 0 0 0 0
0.028291101 17.157629 10.178178 0 0 0 0 0
0.044596832 17.175882 11.133024 0 0 0 0 0
0.055436861 17.075239 12.078667 0 0 0 0 0
0.089242086 17.186287 13.16248 0 0 0 0 0
0.083803043 17.06315 14.229863 0 0 0 0 0
0.0089639537 17.082804 15.375386 0 0 0 0 0
0.024048787 17.19235 16.236998 0 0 0 0 0
0.066641249 17.133142 17.482128 0 0 0 0 0
0.098497629 17.137333 18.022995 0 0 0 0 0
0.044239633 17.016233 19.34334 0 0 0 0 0
0.023054395 17.525829 0.48479474 0 0 0 0 0
0.010995494 17.597101 1.2077789 0 0 0 0 0
0.048614834 17.650311 2.4849632 0 0 0 0 0
0.041758519 17.681778 3.4311736 0 0 0 0 0
0.073333792 17.54677 4.3501887 0 0 0 0 0
0.01473556 17.638714 5.3950086 0 0 0 0 0
0.01091106 17.588869 6.0152526 0 0 0 0 0
0.077482581 17.683668 7.3484588 0 0 0 0 0
0.046148643 17.676519 8.3409472 0 0 0 0 0
0.054265358 17.685717 9.0621452 0 0 0 0 0
