# .PCD v0.7 - Point Cloud Data file format
VERSION 0.7
FIELDS x y z intensity normal_x normal_y normal_z curvature
SIZE 4 4 4 4 4 4 4 4
TYPE F F F F F F F F
COUNT 1 1 1 1 1 1 1 1
WIDTH 1111
HEIGHT 1
VIEWPOINT 0 0 0 1 0 0 0
POINTS 1111
DATA ascii
-2.4431422 0.0076753376 0.44000435 1 0 0 0 0
-2.4654555 0.017898664 1.1798929 1 0 0 0 0
-2.4113915 0.037871048 2.3237612 1 0 0 0 0
-2.4798629 0.032571144 3.4347198 1 0 0 0 0
-2.37848 0.010417419 4.4028945 1 0 0 0 0
-2.3500562 0.039877549 5.1833982 1 0 0 0 0
-2.4211524 0.027218929 6.2998223 1 0 0 0 0
-2.4863529 0.090154864 7.2160997 1 0 0 0 0
-2.3237536 0.06748496 8.2303257 1 0 0 0 0
-2.4056723 0.029243175 9.1122074 1 0 0 0 0
-1.9507858 0.057672102 -9.8494158 1 0 0 0 0
-1.974784 0.074944317 -8.759922 1 0 0 0 0
-1.9028268 0.019248579 -7.5705671 1 0 0 0 0
-1.9733224 0.029317146 -6.9077115 1 0 0 0 0
-1.9994345 0.090077177 -5.8556242 1 0 0 0 0
-1.8382766 0.065049067 -4.6562366 1 0 0 0 0
-1.9649174 0.0044729472 -3.5201418 1 0 0 0 0
-1.8449885 0.011296429 -2.5693674 1 0 0 0 0
-1.9585487 0.099419601 -1.7319427 1 0 0 0 0
-1.8664184 0.046583477 -0.58572686 1 0 0 0 0
-1.8215352 0.071190596 0.20263368 1 0 0 0 0
-1.9613014 0.083798587 1.0773553 1 0 0 0 0
-1.8652704 0.032385163 2.1735981 1 0 0 0 0
-1.8934972 0.045723967 3.320184 1 0 0 0 0
-1.8565817 0.046006747 4.2705698 1 0 0 0 0
-1.9988314 0.026868423 5.0958152 1 0 0 0 0
-1.861326 0.044409733 6.1181798 1 0 0 0 0
-1.8693826 0.02191549 7.1746621 1 0 0 0 0
-1.8971297 0.042641155 8.1717596 1 0 0 0 0
-1.9899068 0.009431988 9.4046774 1 0 0 0 0
-1.3241975 0.098664366 -9.7393694 1 0 0 0 0
-1.443144 0.018013634 -8.8203764 1 0 0 0 0
-1.4122019 0.085378453 -7.6584511 1 0 0 0 0
-1.3427627 0.038629867 -6.929831 1 0 0 0 0
-1.4146891 0.010339024 -5.6997972 1 0 0 0 0
-1.3064612 0.010923343 -4.565455 1 0 0 0 0
-1.4681351 0.080260374 -3.8434064 1 0 0 0 0
-1.4208632 0.04556904 -2.733829 1 0 0 0 0
-1.3509984 0.097004212 -1.5206232 1 0 0 0 0
-1.4822943 0.0020508352 -0.97346336 1 0 0 0 0
-1.3204234 0.089952096 0.019858507 1 0 0 0 0
-1.4161712 0.018380087 1.1099267 1 0 0 0 0
-1.3443218 0.062279128 2.036819 1 0 0 0 0
-1.4077022 0.040897805 3.2299683 1 0 0 0 0
-1.3796346 0.083553255 4.2816634 1 0 0 0 0
-1.4595535 0.080322668 5.3362799 1 0 0 0 0
-1.4857357 0.096255109 6.2375817 1 0 0 0 0
-1.4230982 0.035823531 7.4654269 1 0 0 0 0
-1.3166298 0.010324357 8.450448 1 0 0 0 0
-1.3248792 0.019177187 9.4607019 1 0 0 0 0
-0.81426448 0.0089654988 -9.5895376 1 0 0 0 0
-0.80632108 0.050879888 -8.9976368 1 0 0 0 0
-0.96235037 0.028718945 -7.6862411 1 0 0 0 0
-0.94762284 0.074867837 -6.9817519 1 0 0 0 0
-0.85563552 0.035050526 -5.5639858 1 0 0 0 0
-0.94297016 0.05527376 -4.6623726 1 0 0 0 0
-0.80845815 0.062405962 -3.6810968 1 0 0 0 0
-0.91342533 0.00085686147 -2.5019794 1 0 0 0 0
-0.9272545 0.092541948 -1.9503574 1 0 0 0 0
-0.94707525 0.080102392 -0.8544715 1 0 0 0 0
-0.9627943 0.072970159 0.19035599 1 0 0 0 0
-0.99860919 0.069809631 1.4447554 1 0 0 0 0
-0.99766386 0.088634431 2.0883501 1 0 0 0 0
-0.87216032 0.014823025 3.4626894 1 0 0 0 0
-0.86486113 0.087005273 4.1379418 1 0 0 0 0
-0.89045542 0.015520187 5.4143109 1 0 0 0 0
-0.9554044 0.011291121 6.2263408 1 0 0 0 0
-0.82784313 0.054578442 7.2306247 1 0 0 0 0
-0.82863486 0.090951189 8.1933346 1 0 0 0 0
-0.80877781 0.017413575 9.0938463 1 0 0 0 0
-0.45056641 0.036016427 -9.5413027 1 0 0 0 0
-0.37442404 0.036711849 -8.6922541 1 0 0 0 0
-0.39652187 0.037879918 -7.7490826 1 0 0 0 0
-0.3611818 0.0017997678 -6.6749673 1 0 0 0 0
-0.37610605 0.069369212 -5.7399406 1 0 0 0 0
-0.32092926 0.02414149 -4.6623402 1 0 0 0 0
-0.35520494 0.046439286 -3.6058843 1 0 0 0 0
-0.46466872 0.032517709 -2.8329921 1 0 0 0 0
-0.37241876 0.018200286 -1.8782362 1 0 0 0 0
-0.49508491 0.013811374 -0.79116827 1 0 0 0 0
-0.45754626 0.038528159 0.38891387 1 0 0 0 0
-0.47406733 0.0013161463 1.072473 1 0 0 0 0
-0.35096914 0.053055219 2.2618728 1 0 0 0 0
-0.45060205 0.022464326 3.2708716 1 0 0 0 0
-0.32058895 0.084411301 4.1177177 1 0 0 0 0
-0.41656527 0.07394667 5.2384248 1 0 0 0 0
-0.48150125 0.046344198 6.4706216 1 0 0 0 0
-0.32385498 0.064009845 7.1332102 1 0 0 0 0
-0.45705181 0.027800465 8.2242117 1 0 0 0 0
-0.4083463 0.030258015 9.2932682 1 0 0 0 0
0.1751864 0.051484883 -9.5140905 1 0 0 0 0
0.13075194 0.064451218 -8.5075102 1 0 0 0 0
0.15974118 0.038966663 -7.7422342 1 0 0 0 0
0.064490244 0.063665636 -6.6299124 1 0 0 0 0
0.17283885 0.053371169 -5.7078562 1 0 0 0 0
0.019925868 0.095088527 -4.8381224 1 0 0 0 0
0.11529587 0.0043379008 -3.6064014 1 0 0 0 0
0.10354445 0.092410408 -2.7863524 1 0 0 0 0
0.15682843 0.013884495 -1.6473501 1 0 0 0 0
0.046513014 0.059711348 -0.99605995 1 0 0 0 0
0.16382033 0.047304548 0.26136443 1 0 0 0 0
0.15818396 0.01268052 1.0836205 1 0 0 0 0
0.15517989 0.092551105 2.2784538 1 0 0 0 0
0.058286257 0.024796231 3.096782 1 0 0 0 0
0.0063212714 0.011215656 4.3636379 1 0 0 0 0
0.12317888 0.021178592 5.3390803 1 0 0 0 0
0.18792985 0.078826524 6.3607702 1 0 0 0 0
0.14536923 0.030598748 7.3228221 1 0 0 0 0
0.030828292 0.0090129701 8.3922443 1 0 0 0 0
0.17188828 0.032269474 9.1908016 1 0 0 0 0
0.6734643 0.014179638 -9.5726757 1 0 0 0 0
0.57801008 0.093271621 -8.5092735 1 0 0 0 0
0.6114583 0.070861563 -7.5465178 1 0 0 0 0
0.52283984 4.6877658e-06 -6.9225368 1 0 0 0 0
0.56155264 0.0031653233 -5.8664584 1 0 0 0 0
0.50700778 0.064754769 -4.7605653 1 0 0 0 0
0.64263999 0.058719702 -3.8664329 1 0 0 0 0
0.58694798 0.031404316 -2.713439 1 0 0 0 0
0.5160768 0.046818461 -1.6683742 1 0 0 0 0
0.67297465 0.032762602 -0.50702685 1 0 0 0 0
0.54929513 0.019494751 0.063871354 1 0 0 0 0
0.52022475 0.058499791 1.0302294 1 0 0 0 0
0.51651537 0.014228934 2.3845372 1 0 0 0 0
0.69790828 0.025648853 3.3845606 1 0 0 0 0
0.52889359 0.056425173 4.4003873 1 0 0 0 0
0.58231026 0.059929065 5.2241611 1 0 0 0 0
0.67808408 0.031249061 6.0177598 1 0 0 0 0
0.53151095 0.074723057 7.1747813 1 0 0 0 0
0.64613533 0.082761459 8.4088736 1 0 0 0 0
0.5787856 0.069248773 9.0726862 1 0 0 0 0
1.0759749 0.093896337 -9.8298397 1 0 0 0 0
1.1015234 0.0040087067 -8.5373411 1 0 0 0 0
1.1136152 0.012266404 -7.9661961 1 0 0 0 0
1.0674301 0.011220535 -6.8379517 1 0 0 0 0
1.0212544 0.02566733 -5.5558262 1 0 0 0 0
1.1814092 0.066822454 -4.7561808 1 0 0 0 0
1.0710738 0.055864476 -3.5999353 1 0 0 0 0
1.0781776 0.071619943 -2.72632 1 0 0 0 0
1.1480901 0.044687603 -1.8125128 1 0 0 0 0
1.1116395 0.084080413 -0.9662689 1 0 0 0 0
1.1407142 0.022067854 0.0032128016 1 0 0 0 0
1.0087782 0.072829567 1.0232563 1 0 0 0 0
1.1938419 0.029637167 2.0845883 1 0 0 0 0
1.0073636 0.063352212 3.140691 1 0 0 0 0
1.0721828 0.0739794 4.2690277 1 0 0 0 0
1.0498524 0.064684048 5.1031399 1 0 0 0 0
1.1473801 0.00022092197 6.3824625 1 0 0 0 0
1.107406 0.039309725 7.240562 1 0 0 0 0
1.016878 0.013354775 8.4639997 1 0 0 0 0
1.0918729 0.069174536 9.3844023 1 0 0 0 0
1.6053654 0.0395316 -9.5052586 1 0 0 0 0
1.6066505 0.043920729 -8.6411104 1 0 0 0 0
1.6159531 0.040841706 -7.9929247 1 0 0 0 0
1.6497884 0.044523466 -6.6761637 1 0 0 0 0
1.5060648 0.080614857 -5.8062668 1 0 0 0 0
1.6136758 0.0055410643 -4.9828467 1 0 0 0 0
1.6549319 0.079231143 -3.9817419 1 0 0 0 0
1.6079168 0.032934166 -2.7851934 1 0 0 0 0
1.5041416 0.041373186 -1.7184194 1 0 0 0 0
1.6897416 0.087309659 -0.87254679 1 0 0 0 0
1.6435025 0.039992355 0.32511121 1 0 0 0 0
1.641399 0.093317613 1.0447148 1 0 0 0 0
1.5849547 0.051294141 2.2489233 1 0 0 0 0
1.5877848 0.026188338 3.4715407 1 0 0 0 0
1.5173192 0.029220741 4.3746152 1 0 0 0 0
1.5948125 0.086058684 5.4023204 1 0 0 0 0
1.6016738 0.063524611 6.2984762 1 0 0 0 0
1.6089771 0.017483 7.4631467 1 0 0 0 0
1.6948998 0.019553807 8.1700125 1 0 0 0 0
1.6075319 0.014424627 9.1065607 1 0 0 0 0
2.1585133 0.086175874 -9.6934767 1 0 0 0 0
2.0885577 0.056875397 -8.7268887 1 0 0 0 0
2.1064436 0.09935277 -7.9704185 1 0 0 0 0
2.0060129 0.043245159 -6.8394766 1 0 0 0 0
2.1946292 0.051904779 -5.6933727 1 0 0 0 0
2.1444752 0.099311039 -4.7630796 1 0 0 0 0
2.1054034 0.050147973 -3.9454565 1 0 0 0 0
2.0247939 0.0046365187 -2.8580415 1 0 0 0 0
2.0100527 0.0020863917 -1.7602725 1 0 0 0 0
2.0780578 0.055852372 -0.68814933 1 0 0 0 0
2.1206822 0.035108991 0.24273004 1 0 0 0 0
2.0432913 0.079387851 1.027107 1 0 0 0 0
2.1525357 0.032609683 2.0238709 1 0 0 0 0
2.1643684 0.035616197 3.2400966 1 0 0 0 0
2.0285778 0.032930855 4.4996204 1 0 0 0 0
2.1512287 0.0051685153 5.4961758 1 0 0 0 0
2.0459967 0.057870246 6.2469158 1 0 0 0 0
2.0678141 0.070267193 7.2700982 1 0 0 0 0
2.1245975 0.075293526 8.28053 1 0 0 0 0
2.0204885 0.014322412 9.0597925 1 0 0 0 0
2.6452289 0.074663527 -9.7646627 1 0 0 0 0
2.542321 0.096309207 -8.8677235 1 0 0 0 0
2.5531638 0.072577089 -7.7046752 1 0 0 0 0
2.562712 0.054761298 -6.5265942 1 0 0 0 0
2.6587508 0.069050178 -5.8619399 1 0 0 0 0
2.6585989 0.044664465 -4.8360977 1 0 0 0 0
2.6570692 0.067662843 -3.5467463 1 0 0 0 0
2.5558355 0.0015699239 -2.6954103 1 0 0 0 0
2.6638749 0.063868709 -1.8189427 1 0 0 0 0
2.576087 0.074112996 -0.74733061 1 0 0 0 0
2.6000037 0.046727415 0.12598702 1 0 0 0 0
2.6941385 0.067887843 1.1075331 1 0 0 0 0
2.547049 0.094469681 2.4704185 1 0 0 0 0
2.665179 0.025825689 3.244225 1 0 0 0 0
2.6545413 0.0052010319 4.0894756 1 0 0 0 0
2.5097651 0.084500499 5.312798 1 0 0 0 0
2.5753262 0.063035116 6.1511126 1 0 0 0 0
2.5566278 0.090952866 7.1589622 1 0 0 0 0
2.6784635 0.072890267 8.4783058 1 0 0 0 0
2.5508864 0.010933715 9.3488703 1 0 0 0 0
3.1519542 0.060935576 -9.9174929 1 0 0 0 0
3.0023491 0.058004837 -8.5780535 1 0 0 0 0
3.0453622 0.081529357 -7.6057048 1 0 0 0 0
3.0335298 0.064118817 -6.9765763 1 0 0 0 0
3.1312196 0.041389409 -5.9505711 1 0 0 0 0
3.1670101 0.046271987 -4.5280685 1 0 0 0 0
3.0921292 0.083935075 -3.7128932 1 0 0 0 0
3.1525743 0.012248909 -2.7581289 1 0 0 0 0
3.0161591 0.0014806895 -1.8936775 1 0 0 0 0
3.0074813 0.026923936 -0.83900893 1 0 0 0 0
3.1470294 0.0029010628 0.46566898 1 0 0 0 0
3.1800325 0.0040755928 1.2556932 1 0 0 0 0
3.1488113 0.026756737 2.1633399 1 0 0 0 0
3.1065292 0.043521579 3.4839339 1 0 0 0 0
3.1158988 0.0091314223 4.1908813 1 0 0 0 0
3.1356702 0.092636436 5.4222412 1 0 0 0 0
3.1244428 0.038701084 6.3419166 1 0 0 0 0
3.0392857 0.014988209 7.403161 1 0 0 0 0
3.136034 0.023067737 8.4105644 1 0 0 0 0
3.1785631 0.02680837 9.0451841 1 0 0 0 0
3.5429595 0.00032310467 -9.9403105 1 0 0 0 0
3.529227 0.090339355 -8.9199324 1 0 0 0 0
3.6315043 0.064744972 -7.786149 1 0 0 0 0
3.6968403 0.018009629 -6.568541 1 0 0 0 0
3.690414 0.075959012 -5.5228839 1 0 0 0 0
3.5667663 0.043794163 -4.5597019 1 0 0 0 0
3.5356629 0.0060155676 -3.8661964 1 0 0 0 0
3.6724293 0.025658343 -2.7912552 1 0 0 0 0
3.6336937 0.093675353 -1.6759167 1 0 0 0 0
3.5979195 0.082956865 -0.54187477 1 0 0 0 0
3.615993 0.0044366084 0.45974076 1 0 0 0 0
3.6398687 0.019050146 1.4114375 1 0 0 0 0
3.6718957 0.084802315 2.2351625 1 0 0 0 0
3.5574362 0.083222479 3.3252106 1 0 0 0 0
3.5300198 0.078429453 4.2050056 1 0 0 0 0
3.5208662 0.01181264 5.4239764 1 0 0 0 0
3.6969855 0.029644033 6.4540544 1 0 0 0 0
3.5505068 0.015858704 7.082346 1 0 0 0 0
3.6340048 0.082705565 8.0507231 1 0 0 0 0
3.5636382 0.031665295 9.4655075 1 0 0 0 0
4.0468884 0.089661844 -9.51231 1 0 0 0 0
4.0307846 0.05959627 -8.9170589 1 0 0 0 0
4.1953597 0.045544162 -7.9930477 1 0 0 0 0
4.0894246 0.074262261 -6.5769353 1 0 0 0 0
4.0195088 0.089272141 -5.6847878 1 0 0 0 0
4.101511 0.099705234 -4.6257248 1 0 0 0 0
4.0711017 0.098197982 -3.9775045 1 0 0 0 0
4.0527234 0.023451444 -2.898211 1 0 0 0 0
4.0856619 0.090453848 -1.9846832 1 0 0 0 0
4.1059508 0.022272933 -0.82635671 1 0 0 0 0
4.0921535 0.045717061 0.12195253 1 0 0 0 0
4.0872297 0.061109342 1.4199339 1 0 0 0 0
4.1204062 0.058789123 2.1476548 1 0 0 0 0
4.1231871 0.0035013843 3.018966 1 0 0 0 0
4.0924129 0.013255757 4.4653268 1 0 0 0 0
4.0184979 0.064011261 5.4638529 1 0 0 0 0
4.1682081 0.099562049 6.4548426 1 0 0 0 0
4.177206 0.025923699 7.0721002 1 0 0 0 0
4.0179219 0.068754546 8.0243692 1 0 0 0 0
4.0240483 0.021729955 9.1357336 1 0 0 0 0
4.5935059 0.06780678 -9.6356812 1 0 0 0 0
4.6422868 0.011421641 -8.8301344 1 0 0 0 0
4.6102605 0.071624681 -7.5361886 1 0 0 0 0
4.6693225 0.033218205 -6.5186815 1 0 0 0 0
4.6769085 0.079424702 -5.9524026 1 0 0 0 0
4.6630392 0.088673636 -4.6323466 1 0 0 0 0
4.6485806 0.072777629 -3.6345363 1 0 0 0 0
4.6305175 0.061380725 -2.5049176 1 0 0 0 0
4.6593575 0.070341624 -1.661145 1 0 0 0 0
4.6691055 0.082365893 -0.55249524 1 0 0 0 0
4.5233989 0.029118821 0.28653872 1 0 0 0 0
4.6691265 0.00026225773 1.3436469 1 0 0 0 0
4.5370731 0.055392466 2.2017703 1 0 0 0 0
4.5225978 0.040053613 3.3678613 1 0 0 0 0
4.5151248 0.028507959 4.2649851 1 0 0 0 0
4.534164 0.010027641 5.208353 1 0 0 0 0
4.6812253 0.084317908 6.0722413 1 0 0 0 0
4.6274109 0.049576718 7.3791447 1 0 0 0 0
4.6254435 0.02925553 8.2308531 1 0 0 0 0
4.5609856 0.013808196 9.1426821 1 0 0 0 0
5.0399876 0.025507649 -9.7117233 1 0 0 0 0
5.154603 0.01007095 -8.710412 1 0 0 0 0
5.092062 0.028607437 -7.9334497 1 0 0 0 0
5.17277 0.03990623 -6.733182 1 0 0 0 0
5.1199145 0.047468714 -5.590642 1 0 0 0 0
5.0259085 0.064550653 -4.540504 1 0 0 0 0
5.1092496 0.055163287 -3.6189144 1 0 0 0 0
5.1381459 0.018868687 -2.8710308 1 0 0 0 0
5.0898042 0.081590533 -1.724753 1 0 0 0 0
5.1821451 0.012083392 -0.65571207 1 0 0 0 0
5.0392179 0.032077208 0.47182617 1 0 0 0 0
5.1545286 0.0093787657 1.0221809 1 0 0 0 0
5.070364 0.055409707 2.1652181 1 0 0 0 0
5.0969839 0.04179471 3.3647492 1 0 0 0 0
5.0037112 0.0017519783 4.1020927 1 0 0 0 0
5.1674542 0.014706217 5.4248462 1 0 0 0 0
5.1512527 0.069331065 6.2006626 1 0 0 0 0
5.1036873 0.038404133 7.2950058 1 0 0 0 0
5.1552749 0.083306164 8.2029591 1 0 0 0 0
5.0653734 0.074378774 9.2633753 1 0 0 0 0
5.503089 0.09398786 -9.5762386 1 0 0 0 0
5.6918192 0.071252234 -8.5293446 1 0 0 0 0
5.5006914 0.0064341584 -7.752296 1 0 0 0 0
5.5667787 0.054926105 -6.5433226 1 0 0 0 0
5.5126786 0.056781687 -5.5345626 1 0 0 0 0
5.5535159 0.040508866 -4.9610314 1 0 0 0 0
5.5234542 0.016135281 -3.6143761 1 0 0 0 0
5.6037192 0.067978837 -2.9223554 1 0 0 0 0
5.5217214 0.045616247 -1.5058247 1 0 0 0 0
5.6029048 0.078303054 -0.6339308 1 0 0 0 0
5.508255 0.07984744 0.33600846 1 0 0 0 0
5.6777596 0.075757056 1.1922696 1 0 0 0 0
5.6660218 0.076102868 2.2244403 1 0 0 0 0
5.5651035 0.0094922967 3.4990709 1 0 0 0 0
5.5477748 0.015831579 4.2829795 1 0 0 0 0
5.5339499 0.042589426 5.4855237 1 0 0 0 0
5.5495372 0.054316483 6.0662003 1 0 0 0 0
5.5037866 0.0061760554 7.4060941 1 0 0 0 0
5.5348444 0.017036814 8.1341753 1 0 0 0 0
5.5325146 0.068489298 9.025691 1 0 0 0 0
6.1789422 0.072616905 -9.5750723 1 0 0 0 0
6.1133456 0.061496835 -8.6962872 1 0 0 0 0
6.1902533 0.044507857 -7.8157725 1 0 0 0 0
6.0800295 0.077059679 -6.768311 1 0 0 0 0
6.079658 0.00094701332 -5.6891532 1 0 0 0 0
6.1928496 0.017921833 -4.9762058 1 0 0 0 0
6.1870594 0.042690359 -3.7046235 1 0 0 0 0
6.0135393 0.044583648 -2.6737432 1 0 0 0 0
6.1759768 0.062005837 -1.5885592 1 0 0 0 0
6.0296474 0.078263089 -0.74611259 1 0 0 0 0
6.0399237 0.067734167 0.11697191 1 0 0 0 0
6.0098948 0.024406949 1.4244561 1 0 0 0 0
6.1313801 0.019533647 2.1469953 1 0 0 0 0
6.0050712 0.059548426 3.0322938 1 0 0 0 0
6.0977468 0.099377394 4.0370288 1 0 0 0 0
6.0220852 0.095802233 5.1266379 1 0 0 0 0
6.0316029 0.089331813 6.3400898 1 0 0 0 0
6.1497536 0.096101411 7.0630078 1 0 0 0 0
6.0802565 0.084089875 8.3730373 1 0 0 0 0
6.0448327 0.098913446 9.2643528 1 0 0 0 0
6.6463876 0.018875165 -9.8969765 1 0 0 0 0
6.6931763 0.023822485 -8.7749414 1 0 0 0 0
6.6629591 0.089512452 -7.6772733 1 0 0 0 0
6.5217571 0.092047945 -6.8795314 1 0 0 0 0
6.5346746 0.040921263 -5.8826442 1 0 0 0 0
6.5494862 0.051963966 -4.9036331 1 0 0 0 0
6.6001415 0.067765489 -3.9569743 1 0 0 0 0
6.5361772 0.042642321 -2.9764671 1 0 0 0 0
6.5613804 0.082770512 -1.5560178 1 0 0 0 0
6.5105953 0.0051868879 -0.56145054 1 0 0 0 0
6.6163363 0.078380734 0.032925282 1 0 0 0 0
6.657546 0.074968964 1.1520377 1 0 0 0 0
6.5475693 0.056448411 2.0996001 1 0 0 0 0
6.6766596 0.067326941 3.0598397 1 0 0 0 0
6.524847 0.084664218 4.2644463 1 0 0 0 0
6.5717897 0.0094072679 5.0242658 1 0 0 0 0
6.6103363 0.059477925 6.3630934 1 0 0 0 0
6.6275463 0.077566542 7.0763049 1 0 0 0 0
6.6369596 0.0082567725 8.4901571 1 0 0 0 0
6.6145525 0.013554454 9.0160923 1 0 0 0 0
7.0899725 0.071722671 -9.5920048 1 0 0 0 0
7.1031427 0.050495602 -8.7171593 1 0 0 0 0
7.1639576 0.074280187 -7.9349174 1 0 0 0 0
7.0037975 0.062610082 -6.5982828 1 0 0 0 0
7.0277333 0.075033709 -5.6749616 1 0 0 0 0
7.133512 0.010928464 -4.6279254 1 0 0 0 0
7.143218 0.066096574 -3.8305357 1 0 0 0 0
7.0884557 0.029869845 -2.942703 1 0 0 0 0
7.1189775 0.098349698 -1.9014192 1 0 0 0 0
7.1150408 0.055625997 -0.83364689 1 0 0 0 0
7.1214771 0.00061219512 0.024966465 1 0 0 0 0
7.0846758 0.052183442 1.2774445 1 0 0 0 0
7.1978116 0.034162235 2.1488454 1 0 0 0 0
7.0238447 0.036061026 3.4618959 1 0 0 0 0
7.1845317 0.049927764 4.3370643 1 0 0 0 0
7.1145468 0.016683707 5.3917069 1 0 0 0 0
7.0633769 0.088292822 6.2221894 1 0 0 0 0
7.1311626 0.032520611 7.3715386 1 0 0 0 0
7.1540813 0.09200938 8.363287 1 0 0 0 0
7.1935139 0.049529653 9.1414175 1 0 0 0 0
7.5600548 0.010268322 -9.8555222 1 0 0 0 0
7.5700417 0.052606117 -8.5946045 1 0 0 0 0
7.6810193 0.05151201 -7.9237933 1 0 0 0 0
7.5405574 0.063434407 -6.7434883 1 0 0 0 0
7.5253158 0.055700243 -5.9938493 1 0 0 0 0
7.6601415 0.012973741 -4.9104309 1 0 0 0 0
7.6168242 0.044662166 -3.9689667 1 0 0 0 0
7.5057001 0.010243443 -2.8063636 1 0 0 0 0
7.6543155 0.08728411 -1.8463168 1 0 0 0 0
7.5996304 0.084040947 -0.59866846 1 0 0 0 0
7.6561975 0.014068402 0.45267311 1 0 0 0 0
7.513989 0.049089149 1.2157037 1 0 0 0 0
7.676147 0.039598793 2.4732637 1 0 0 0 0
7.5066295 0.059877522 3.2904358 1 0 0 0 0
7.6092343 0.072535418 4.0689368 1 0 0 0 0
7.6116948 0.052606195 5.1338058 1 0 0 0 0
7.6475224 0.011018317 6.3571167 1 0 0 0 0
7.6599355 0.013868356 7.4083338 1 0 0 0 0
7.5373902 0.091026157 8.3447542 1 0 0 0 0
7.5988636 0.040841416 9.2649593 1 0 0 0 0
8.0593958 0.018940136 -9.6646986 1 0 0 0 0
8.0404654 0.025934514 -8.9192533 1 0 0 0 0
8.1267471 0.014007993 -7.7212591 1 0 0 0 0
8.1160526 0.01732281 -6.9218717 1 0 0 0 0
8.0322266 0.07193999 -5.5591946 1 0 0 0 0
8.0598011 0.027787298 -4.7961636 1 0 0 0 0
8.1133232 0.0015484393 -3.7410719 1 0 0 0 0
8.0561705 0.081516236 -2.6717303 1 0 0 0 0
8.0195036 0.0002113048 -1.7165995 1 0 0 0 0
8.1574059 0.049643017 -0.5123924 1 0 0 0 0
8.0633888 0.079341039 0.082308292 1 0 0 0 0
8.1975098 0.099573672 1.2119808 1 0 0 0 0
8.029808 0.06294705 2.2820208 1 0 0 0 0
8.141304 0.020973187 3.3686349 1 0 0 0 0
8.1725559 0.037086468 4.2283349 1 0 0 0 0
8.1488781 0.066987142 5.3672714 1 0 0 0 0
8.0304127 0.023648951 6.3750134 1 0 0 0 0
8.1339836 0.05173406 7.2825947 1 0 0 0 0
8.0652914 0.061485909 8.2836514 1 0 0 0 0
8.1786518 0.040188611 9.0318661 1 0 0 0 0
8.6736946 0.07188312 -9.5714283 1 0 0 0 0
8.5066185 0.070637822 -8.5735598 1 0 0 0 0
8.5914106 0.085541882 -7.7588248 1 0 0 0 0
8.5042191 0.056194089 -6.6539588 1 0 0 0 0
8.6516724 0.04247196 -5.9685264 1 0 0 0 0
8.5430069 0.016910916 -4.6335907 1 0 0 0 0
8.6899157 0.032117151 -3.5153461 1 0 0 0 0
8.6399202 0.099108979 -2.7566757 1 0 0 0 0
8.5529585 0.031754762 -1.9492463 1 0 0 0 0
8.666419 0.021080647 -0.74830317 1 0 0 0 0
8.6791658 0.0079280548 0.11111236 1 0 0 0 0
8.6505938 0.01123712 1.4643015 1 0 0 0 0
8.62117 0.056942355 2.3920109 1 0 0 0 0
8.5176401 0.05905176 3.1729813 1 0 0 0 0
8.6560564 0.034888137 4.3853412 1 0 0 0 0
8.6686459 0.056391478 5.4698958 1 0 0 0 0
8.6152096 0.051349085 6.1304812 1 0 0 0 0
8.6090708 0.0213094 7.1260262 1 0 0 0 0
8.5064011 0.047788654 8.2848005 1 0 0 0 0
8.5267019 0.030998155 9.3902035 1 0 0 0 0
9.1273813 0.020580921 -9.5701561 1 0 0 0 0
9.1718264 0.09587799 -8.5139704 1 0 0 0 0
9.157547 0.056463026 -7.729259 1 0 0 0 0
9.1143513 0.065283105 -6.934 1 0 0 0 0
9.1835432 0.043311384 -5.7595596 1 0 0 0 0
9.1376801 0.027634352 -4.977602 1 0 0 0 0
9.125638 0.08523915 -3.7208567 1 0 0 0 0
9.1778307 0.03977472 -2.6143095 1 0 0 0 0
9.0282412 0.042975128 -1.8753663 1 0 0 0 0
9.1421614 0.056326281 -0.72037554 1 0 0 0 0
9.0982428 0.020016793 0.38252905 1 0 0 0 0
9.0701799 0.0059297746 1.3619189 1 0 0 0 0
9.0645924 0.084703051 2.1442342 1 0 0 0 0
9.1728888 0.041878507 3.4706497 1 0 0 0 0
9.1992884 0.033650227 4.1872067 1 0 0 0 0
9.0954647 0.0024901784 5.3253784 1 0 0 0 0
9.1044235 0.065309271 6.251574 1 0 0 0 0
9.0160809 0.054224659 7.4504476 1 0 0 0 0
9.1703577 0.068345316 8.1653233 1 0 0 0 0
9.0202103 0.03942601 9.4469547 1 0 0 0 0
9.6320601 0.088547386 -9.952961 1 0 0 0 0
9.5850725 0.0236375 -8.9233122 1 0 0 0 0
9.5298395 0.055933468 -7.9997973 1 0 0 0 0
9.587533 0.042377651 -6.7904048 1 0 0 0 0
9.5757933 0.042021815 -5.6221533 1 0 0 0 0
9.6506758 0.08975409 -4.6097026 1 0 0 0 0
9.5808268 0.041965954 -3.7831564 1 0 0 0 0
9.6814566 0.050006501 -2.512033 1 0 0 0 0
9.6616354 0.035185128 -1.6703064 1 0 0 0 0
9.5277653 0.045290489 -0.97317636 1 0 0 0 0
9.506547 0.011320734 0.46956056 1 0 0 0 0
9.525362 0.05385679 1.0877481 1 0 0 0 0
9.5560379 0.068776645 2.3674154 1 0 0 0 0
9.556119 0.012543321 3.0793037 1 0 0 0 0
9.6399565 0.050439924 4.2894125 1 0 0 0 0
9.591095 0.025777841 5.238183 1 0 0 0 0
9.5472145 0.06619142 6.4480128 1 0 0 0 0
9.6339521 0.056919802 7.1980453 1 0 0 0 0
9.6291389 0.03773772 8.373971 1 0 0 0 0
9.5610161 0.051620293 9.1004238 1 0 0 0 0
0.054893803 -9.9282541 -9.8429728 1 0 0 0 0
0.067575045 -9.9404306 -8.5736885 1 0 0 0 0
0.095593795 -9.9053307 -7.7298055 1 0 0 0 0
0.023653105 -9.9583645 -6.667089 1 0 0 0 0
0.093631484 -9.9266434 -5.9148893 1 0 0 0 0
0.039179154 -9.8108788 -4.7860003 1 0 0 0 0
0.062786296 -9.9156055 -3.9550431 1 0 0 0 0
0.029762194 -9.9363995 -2.6704443 1 0 0 0 0
0.094331488 -9.8571815 -1.9817556 1 0 0 0 0
0.024839502 -9.9075937 -0.72365415 1 0 0 0 0
0.060712241 -9.867424 0.050814882 1 0 0 0 0
0.090497099 -9.8046131 1.3886901 1 0 0 0 0
0.037831567 -9.8340883 2.3666592 1 0 0 0 0
0.058649115 -9.9260111 3.4849246 1 0 0 0 0
0.095327392 -9.9928465 4.4530821 1 0 0 0 0
0.089888215 -9.9588022 5.1489778 1 0 0 0 0
0.032085672 -9.8732023 6.4629092 1 0 0 0 0
0.063885711 -9.8552198 7.1117201 1 0 0 0 0
0.035294838 -9.9233971 8.0833778 1 0 0 0 0
0.081498176 -9.9160995 9.2075748 1 0 0 0 0
0.047786213 -9.3055611 -9.9888639 1 0 0 0 0
0.045479685 -9.4852352 -8.5363779 1 0 0 0 0
0.028435379 -9.3297596 -7.8472204 1 0 0 0 0
0.065429941 -9.3830957 -6.5539746 1 0 0 0 0
0.069006681 -9.3891258 -5.5773377 1 0 0 0 0
0.08960554 -9.4078932 -4.6278968 1 0 0 0 0
0.053004343 -9.3483019 -3.9674683 1 0 0 0 0
0.025394514 -9.3631382 -2.6480396 1 0 0 0 0
0.063695855 -9.31845 -1.9715655 1 0 0 0 0
0.0056460788 -9.4850988 -0.56407464 1 0 0 0 0
0.0028654784 -9.4020691 0.17485645 1 0 0 0 0
0.010247855 -9.3976145 1.4022548 1 0 0 0 0
0.095368251 -9.4121656 2.0444317 1 0 0 0 0
0.053820468 -9.3510532 3.3715816 1 0 0 0 0
0.0092576053 -9.3726435 4.2166147 1 0 0 0 0
0.055311143 -9.4035788 5.1646423 1 0 0 0 0
0.031160239 -9.4547367 6.4296641 1 0 0 0 0
0.099591188 -9.4417248 7.0566368 1 0 0 0 0
0.090366192 -9.3009405 8.3751163 1 0 0 0 0
0.097816736 -9.4895668 9.403347 1 0 0 0 0
0.046782322 -8.815196 -9.5823259 1 0 0 0 0
0.097975202 -8.9452534 -8.5310869 1 0 0 0 0
0.041892461 -8.9843521 -7.5542455 1 0 0 0 0
0.016365677 -8.9665794 -6.7851434 1 0 0 0 0
0.080043957 -8.8179464 -5.7388554 1 0 0 0 0
0.028254703 -8.9313002 -4.9622993 1 0 0 0 0
0.050886124 -8.8654432 -3.8064983 1 0 0 0 0
0.0800239 -8.8935776 -2.8085423 1 0 0 0 0
0.079553738 -8.870923 -1.8567114 1 0 0 0 0
0.084770478 -8.9208765 -0.86762768 1 0 0 0 0
0.077172294 -8.9595385 0.36628392 1 0 0 0 0
0.0045454078 -8.9924688 1.3561599 1 0 0 0 0
0.012369496 -8.804903 2.0656223 1 0 0 0 0
0.02907994 -8.826601 3.1474507 1 0 0 0 0
0.020106677 -8.9406586 4.0476704 1 0 0 0 0
0.05445639 -8.8362007 5.1889439 1 0 0 0 0
0.021734616 -8.8211203 6.4433746 1 0 0 0 0
0.074945703 -8.9437199 7.3434939 1 0 0 0 0
0.039484162 -8.867137 8.2412624 1 0 0 0 0
0.079045847 -8.8098211 9.1651154 1 0 0 0 0
0.099276841 -8.456872 -9.9490232 1 0 0 0 0
0.003042616 -8.310359 -8.9262962 1 0 0 0 0
0.00059103273 -8.3678951 -7.864449 1 0 0 0 0
0.087290339 -8.3416462 -6.7190495 1 0 0 0 0
0.016961012 -8.482666 -5.618516 1 0 0 0 0
0.098860644 -8.4635973 -4.8462338 1 0 0 0 0
0.088300392 -8.3880196 -3.7375607 1 0 0 0 0
0.016440479 -8.4106703 -2.8628323 1 0 0 0 0
0.082872108 -8.4732723 -1.6654115 1 0 0 0 0
0.077961452 -8.3767672 -0.77018225 1 0 0 0 0
0.099525258 -8.3107214 0.22620192 1 0 0 0 0
0.094345853 -8.4903307 1.241415 1 0 0 0 0
0.06039843 -8.4608498 2.2443702 1 0 0 0 0
0.039575446 -8.4066286 3.1808219 1 0 0 0 0
0.048242588 -8.4942484 4.2656269 1 0 0 0 0
0.066443808 -8.3416548 5.2599301 1 0 0 0 0
0.022433814 -8.4801483 6.2014322 1 0 0 0 0
0.067098729 -8.3751726 7.2836347 1 0 0 0 0
0.080462456 -8.3203058 8.1979952 1 0 0 0 0
0.042078726 -8.3864708 9.0878019 1 0 0 0 0
0.036718011 -7.9945431 -9.9145718 1 0 0 0 0
0.041552611 -7.9040623 -8.9428425 1 0 0 0 0
0.061127931 -7.8074965 -7.6408501 1 0 0 0 0
0.0078134742 -7.9097486 -6.9429727 1 0 0 0 0
0.010689172 -7.8374195 -5.7017598 1 0 0 0 0
0.089861706 -7.931169 -4.8695407 1 0 0 0 0
0.099787459 -7.8271966 -3.7573717 1 0 0 0 0
0.062201053 -7.9466238 -2.9218781 1 0 0 0 0
0.052048184 -7.8331699 -1.5195658 1 0 0 0 0
0.0088130143 -7.9539723 -0.80917215 1 0 0 0 0
0.011541391 -7.9188514 0.3744179 1 0 0 0 0
0.059510153 -7.8846798 1.082181 1 0 0 0 0
0.055761911 -7.8618164 2.3878207 1 0 0 0 0
0.00088770536 -7.9181566 3.426888 1 0 0 0 0
0.08217787 -7.8953457 4.4803338 1 0 0 0 0
0.016593428 -7.9760499 5.4296422 1 0 0 0 0
0.0029950149 -7.9238658 6.4285798 1 0 0 0 0
0.029683027 -7.8268147 7.2395849 1 0 0 0 0
0.013097942 -7.9955659 8.4998255 1 0 0 0 0
0.036111865 -7.8033924 9.043891 1 0 0 0 0
0.076686248 -7.4270611 -9.8984022 1 0 0 0 0
0.034346353 -7.477294 -8.6008511 1 0 0 0 0
0.0034380313 -7.4444218 -7.822042 1 0 0 0 0
0.04435971 -7.4892931 -6.8176031 1 0 0 0 0
0.09668684 -7.3185382 -5.906714 1 0 0 0 0
0.0086620003 -7.3264046 -4.8237467 1 0 0 0 0
0.046729002 -7.3545475 -3.8087716 1 0 0 0 0
0.03332166 -7.3831158 -2.6603565 1 0 0 0 0
0.035538711 -7.4872818 -1.5948669 1 0 0 0 0
0.033842601 -7.4873514 -0.91430753 1 0 0 0 0
0.070312068 -7.4697952 0.46912372 1 0 0 0 0
0.081665106 -7.4291558 1.1408556 1 0 0 0 0
0.0094543388 -7.4694963 2.1580458 1 0 0 0 0
0.014807698 -7.398313 3.3798442 1 0 0 0 0
0.0055386559 -7.3253546 4.3632784 1 0 0 0 0
0.092336386 -7.48804 5.4065886 1 0 0 0 0
0.06506259 -7.4175386 6.1402335 1 0 0 0 0
0.023504728 -7.3410473 7.3068419 1 0 0 0 0
0.029863853 -7.40519 8.4845352 1 0 0 0 0
0.036188144 -7.4431367 9.1537485 1 0 0 0 0
0.05129062 -6.9088597 -9.9946918 1 0 0 0 0
0.086712673 -6.9212103 -8.5863657 1 0 0 0 0
0.0019644529 -6.8648682 -7.539094 1 0 0 0 0
0.052807875 -6.80165 -6.9650559 1 0 0 0 0
0.040130638 -6.8497124 -5.9373627 1 0 0 0 0
0.046110615 -6.9044008 -4.9756804 1 0 0 0 0
0.087341242 -6.9417653 -3.6503675 1 0 0 0 0
0.066817529 -6.8856721 -2.5328441 1 0 0 0 0
0.014222503 -6.9629354 -1.8835247 1 0 0 0 0
0.042654105 -6.9691215 -0.70258397 1 0 0 0 0
0.088224202 -6.9076219 0.053869154 1 0 0 0 0
0.027619045 -6.9054985 1.4874325 1 0 0 0 0
0.095184989 -6.9400449 2.4972548 1 0 0 0 0
0.094360061 -6.9556828 3.2612941 1 0 0 0 0
0.06950397 -6.9417048 4.4619474 1 0 0 0 0
0.017303554 -6.9166498 5.1925006 1 0 0 0 0
0.04642082 -6.9069223 6.1292067 1 0 0 0 0
0.0035847698 -6.9670691 7.463294 1 0 0 0 0
0.02211706 -6.980207 8.0344067 1 0 0 0 0
0.037556402 -6.9336166 9.2476768 1 0 0 0 0
0.08374539 -6.3146501 -9.811202 1 0 0 0 0
0.030996094 -6.4931026 -8.6731062 1 0 0 0 0
0.060973614 -6.4981294 -7.6971817 1 0 0 0 0
0.083132282 -6.4992275 -6.7253814 1 0 0 0 0
0.012279818 -6.3947101 -5.8778615 1 0 0 0 0
0.053954858 -6.4099312 -4.7913437 1 0 0 0 0
0.00049379369 -6.332931 -3.5592394 1 0 0 0 0
0.016959215 -6.4812484 -2.5413156 1 0 0 0 0
0.026855847 -6.4959307 -1.9307303 1 0 0 0 0
0.060047545 -6.4821677 -0.74294835 1 0 0 0 0
0.052722447 -6.3830967 0.17577858 1 0 0 0 0
0.056171186 -6.3075776 1.330759 1 0 0 0 0
0.057106424 -6.3768201 2.135627 1 0 0 0 0
0.057492625 -6.4556928 3.0512886 1 0 0 0 0
0.010137652 -6.3458452 4.1126876 1 0 0 0 0
0.055172145 -6.4969897 5.382462 1 0 0 0 0
0.038706712 -6.413527 6.3849311 1 0 0 0 0
0.048082609 -6.437223 7.469727 1 0 0 0 0
0.050117351 -6.4537492 8.1040058 1 0 0 0 0
0.059033446 -6.4260416 9.4042435 1 0 0 0 0
0.017485 -5.8232207 -9.8321438 1 0 0 0 0
0.013696218 -5.9529095 -8.5512877 1 0 0 0 0
0.075286143 -5.8206058 -7.7657557 1 0 0 0 0
0.097439773 -5.9663548 -6.9782925 1 0 0 0 0
0.074517153 -5.9458394 -5.9276047 1 0 0 0 0
0.076022252 -5.9007645 -4.6517439 1 0 0 0 0
0.019258633 -5.9477797 -3.9582102 1 0 0 0 0
0.05064711 -5.9938073 -2.717797 1 0 0 0 0
0.073772445 -5.8059163 -1.9672104 1 0 0 0 0
0.010751722 -5.964314 -0.67204309 1 0 0 0 0
0.099141315 -5.8026166 0.41538188 1 0 0 0 0
0.022686636 -5.9354739 1.483863 1 0 0 0 0
0.012383761 -5.9559894 2.3602936 1 0 0 0 0
0.029206309 -5.8622913 3.3474925 1 0 0 0 0
0.056286566 -5.8536086 4.2200785 1 0 0 0 0
0.0059043476 -5.8246503 5.1001897 1 0 0 0 0
0.032014512 -5.8853478 6.1964827 1 0 0 0 0
0.035110857 -5.8686318 7.4497185 1 0 0 0 0
0.032152597 -5.9557509 8.3185806 1 0 0 0 0
0.049995571 -5.9426351 9.3723392 1 0 0 0 0
0.048687328 -5.3114524 -9.6319542 1 0 0 0 0
0.080950305 -5.3452992 -8.5185213 1 0 0 0 0
0.0029557054 -5.3517542 -7.9566021 1 0 0 0 0
0.071809933 -5.4076366 -6.8105707 1 0 0 0 0
0.045005634 -5.4686399 -5.5291381 1 0 0 0 0
0.032680441 -5.3806086 -4.9996161 1 0 0 0 0
0.090006508 -5.3405328 -3.8395436 1 0 0 0 0
0.055690538 -5.4619393 -2.6639893 1 0 0 0 0
0.077815153 -5.4820523 -1.5032263 1 0 0 0 0
0.0064976923 -5.35462 -0.75324845 1 0 0 0 0
0.00077160652 -5.4056845 0.49018818 1 0 0 0 0
0.078121893 -5.4584661 1.3949397 1 0 0 0 0
0.052244775 -5.4658742 2.4097183 1 0 0 0 0
0.098426402 -5.4485154 3.2687678 1 0 0 0 0
0.014106533 -5.3727436 4.4937963 1 0 0 0 0
0.07380233 -5.3843989 5.1571984 1 0 0 0 0
0.053536039 -5.3842454 6.1072307 1 0 0 0 0
0.072566301 -5.3200626 7.3856835 1 0 0 0 0
0.081540219 -5.3856583 8.2747593 1 0 0 0 0
0.05423025 -5.3869491 9.3072481 1 0 0 0 0
0.0013881108 -4.9882483 -9.6888943 1 0 0 0 0
0.022155121 -4.9921732 -8.7982845 1 0 0 0 0
0.039217919 -4.834197 -7.5370607 1 0 0 0 0
0.064960264 -4.8703098 -6.544929 1 0 0 0 0
0.028588468 -4.9628024 -5.9743962 1 0 0 0 0
0.086389087 -4.9652843 -4.6053843 1 0 0 0 0
0.044266485 -4.9024048 -3.8377044 1 0 0 0 0
0.034235161 -4.8595123 -2.9748728 1 0 0 0 0
0.09140598 -4.9052391 -1.5671717 1 0 0 0 0
0.047931544 -4.9953356 -0.79602045 1 0 0 0 0
0.053807415 -4.872436 0.21092011 1 0 0 0 0
0.057720918 -4.9479938 1.3216957 1 0 0 0 0
0.040622368 -4.8673077 2.0177853 1 0 0 0 0
0.0054674689 -4.8821321 3.3425865 1 0 0 0 0
0.024066161 -4.9001036 4.4855289 1 0 0 0 0
0.041424073 -4.8898621 5.4174743 1 0 0 0 0
0.090221651 -4.9320159 6.1388068 1 0 0 0 0
0.060465395 -4.8670979 7.3099828 1 0 0 0 0
0.0078458488 -4.8570466 8.2670126 1 0 0 0 0
0.010178162 -4.8839154 9.00667 1 0 0 0 0
0.073960021 -4.3023238 -9.7242928 1 0 0 0 0
0.099963054 -4.4179554 -8.935688 1 0 0 0 0
0.066309124 -4.4892774 -7.7325764 1 0 0 0 0
0.025243035 -4.4821634 -6.7052388 1 0 0 0 0
0.075191185 -4.3451285 -5.584908 1 0 0 0 0
0.030260092 -4.3509169 -4.8777876 1 0 0 0 0
0.064252101 -4.3839273 -3.9266794 1 0 0 0 0
0.030703247 -4.3284044 -2.6243525 1 0 0 0 0
0.0021798331 -4.4044113 -1.5851233 1 0 0 0 0
0.060222078 -4.4976063 -0.53423244 1 0 0 0 0
0.059060238 -4.4949384 0.33556771 1 0 0 0 0
8.2420745e-05 -4.3846555 1.3353829 1 0 0 0 0
0.0054437472 -4.3589306 2.1669285 1 0 0 0 0
0.014362137 -4.451961 3.2931437 1 0 0 0 0
0.091797851 -4.3340564 4.1690998 1 0 0 0 0
0.066339366 -4.3680196 5.3204002 1 0 0 0 0
0.024375763 -4.3191347 6.1416607 1 0 0 0 0
0.010173531 -4.4898067 7.295177 1 0 0 0 0
0.057967834 -4.3395476 8.306076 1 0 0 0 0
0.059164654 -4.3735971 9.1071863 1 0 0 0 0
0.061695535 -3.88729 -9.5975122 1 0 0 0 0
0.019367889 -3.9530628 -8.5971003 1 0 0 0 0
0.089902632 -3.8189096 -7.5698814 1 0 0 0 0
0.013922128 -3.9521382 -6.9980707 1 0 0 0 0
0.096893854 -3.8348808 -5.5390816 1 0 0 0 0
0.062883958 -3.9672408 -4.7073846 1 0 0 0 0
0.053316522 -3.8390808 -3.585506 1 0 0 0 0
0.058413196 -3.9824166 -2.5346384 1 0 0 0 0
0.038639378 -3.8643458 -1.7447991 1 0 0 0 0
0.0018409106 -3.9419155 -0.94897586 1 0 0 0 0
0.05819596 -3.8990409 0.35950184 1 0 0 0 0
0.081664547 -3.9380457 1.4563413 1 0 0 0 0
0.072209731 -3.9768858 2.4058545 1 0 0 0 0
0.096140623 -3.8048384 3.4754651 1 0 0 0 0
0.078700267 -3.8040669 4.4599342 1 0 0 0 0
0.095079847 -3.8196995 5.274354 1 0 0 0 0
0.075539447 -3.9026535 6.0409369 1 0 0 0 0
0.08433117 -3.9368558 7.3330026 1 0 0 0 0
0.052158266 -3.950711 8.0261993 1 0 0 0 0
0.08120057 -3.8486307 9.0354042 1 0 0 0 0
0.031680156 -3.3282211 -9.6736164 1 0 0 0 0
0.062657267 -3.3844204 -8.7652931 1 0 0 0 0
0.074214324 -3.4018838 -7.9042444 1 0 0 0 0
0.071795069 -3.4395421 -6.9235415 1 0 0 0 0
0.069761649 -3.4493561 -5.5300403 1 0 0 0 0
0.059911907 -3.4653823 -4.5546408 1 0 0 0 0
0.0085852128 -3.3556406 -3.6769438 1 0 0 0 0
0.040157329 -3.3392658 -2.7552879 1 0 0 0 0
0.06480179 -3.4060647 -1.9944966 1 0 0 0 0
0.040486418 -3.3955851 -0.5884937 1 0 0 0 0
0.026375884 -3.3814232 0.069907047 1 0 0 0 0
0.084165715 -3.4508698 1.3831934 1 0 0 0 0
0.0332238 -3.356987 2.2542651 1 0 0 0 0
0.06345278 -3.3186848 3.1132402 1 0 0 0 0
0.088774763 -3.4881015 4.4620485 1 0 0 0 0
0.0060836235 -3.3001175 5.2616081 1 0 0 0 0
0.078263298 -3.321974 6.304534 1 0 0 0 0
0.058630329 -3.3927515 7.005321 1 0 0 0 0
0.0055979053 -3.4948666 8.3293295 1 0 0 0 0
0.0578054 -3.4926653 9.0317621 1 0 0 0 0
0.017093737 -2.8280628 -9.836359 1 0 0 0 0
0.041658863 -2.8000998 -8.9155302 1 0 0 0 0
0.013165332 -2.8468225 -7.7494111 1 0 0 0 0
0.0038228729 -2.9451165 -6.9321475 1 0 0 0 0
0.0097721089 -2.8998203 -5.9882736 1 0 0 0 0
0.0097133098 -2.9150009 -4.9578552 1 0 0 0 0
0.098726317 -2.8103578 -3.5665388 1 0 0 0 0
0.052350588 -2.8885441 -2.7733872 1 0 0 0 0
0.054917276 -2.8864157 -1.7453976 1 0 0 0 0
0.058584649 -2.954684 -0.95637059 1 0 0 0 0
0.04455328 -2.9419792 0.12909809 1 0 0 0 0
0.04450332 -2.8765228 1.3373923 1 0 0 0 0
0.021092035 -2.8427348 2.403219 1 0 0 0 0
0.048533745 -2.9424992 3.4223335 1 0 0 0 0
0.098623522 -2.9153581 4.4711938 1 0 0 0 0
0.04112301 -2.9106674 5.0197606 1 0 0 0 0
0.035944112 -2.8938096 6.013392 1 0 0 0 0
0.091672048 -2.9204252 7.2751451 1 0 0 0 0
0.048464134 -2.8297801 8.0497313 1 0 0 0 0
0.071122169 -2.9279389 9.3426542 1 0 0 0 0
0.00013257269 -2.4104872 -9.9345789 1 0 0 0 0
0.061871223 -2.3588481 -8.7120619 1 0 0 0 0
0.040503841 -2.4238911 -7.6066022 1 0 0 0 0
0.069254227 -2.4626036 -6.8639336 1 0 0 0 0
0.011575159 -2.4936702 -5.8708158 1 0 0 0 0
0.056241404 -2.3051925 -4.6652007 1 0 0 0 0
0.0093365852 -2.4972882 -3.9854803 1 0 0 0 0
0.04912401 -2.4919314 -2.5271201 1 0 0 0 0
0.034234002 -2.3818734 -1.7847993 1 0 0 0 0
0.070264474 -2.3619809 -0.92918849 1 0 0 0 0
0.015020825 -2.4249191 0.071474373 1 0 0 0 0
0.085596792 -2.3987505 1.3808305 1 0 0 0 0
0.023651244 -2.4835756 2.0833497 1 0 0 0 0
0.042349506 -2.3262165 3.4296207 1 0 0 0 0
0.045514449 -2.4717898 4.4874964 1 0 0 0 0
0.04291819 -2.4201162 5.2687035 1 0 0 0 0
0.044274036 -2.4861965 6.3153868 1 0 0 0 0
0.048308305 -2.4803884 7.0610065 1 0 0 0 0
0.0073715858 -2.4912364 8.2321768 1 0 0 0 0
0.076381147 -2.4051561 9.083499 1 0 0 0 0
0.013921645 -1.8768317 -9.8413973 1 0 0 0 0
0.064546354 -1.8482419 -8.913413 1 0 0 0 0
0.0727586 -1.8959097 -7.7951565 1 0 0 0 0
0.05965041 -1.8625698 -6.5834093 1 0 0 0 0
0.073755533 -1.8907214 -5.8558369 1 0 0 0 0
0.013697485 -1.8957229 -4.6412458 1 0 0 0 0
0.02059928 -1.9882414 -3.9198759 1 0 0 0 0
0.030405024 -1.8620868 -2.6783342 1 0 0 0 0
0.034786765 -1.8376842 -1.6414764 1 0 0 0 0
0.082208633 -1.9448135 -0.7595706 1 0 0 0 0
0.04379281 -1.9114139 0.31003764 1 0 0 0 0
0.019671859 -1.8479726 1.1327695 1 0 0 0 0
0.071717009 -1.8133378 2.4965625 1 0 0 0 0
0.040432096 -1.9314004 3.2948146 1 0 0 0 0
0.095071353 -1.9647641 4.1635923 1 0 0 0 0
0.047209933 -1.9070989 5.2320795 1 0 0 0 0
0.053089242 -1.9635973 6.3350759 1 0 0 0 0
0.022045869 -1.9315476 7.4871011 1 0 0 0 0
0.0032038167 -1.8028814 8.1610346 1 0 0 0 0
0.030797089 -1.8594718 9.0720778 1 0 0 0 0
0.075090155 -1.4633001 -9.7089577 1 0 0 0 0
0.051103853 -1.339285 -8.6105986 1 0 0 0 0
0.044434961 -1.4861772 -7.7520137 1 0 0 0 0
0.078734733 -1.4875523 -6.5498533 1 0 0 0 0
0.096352659 -1.3696265 -5.5744963 1 0 0 0 0
0.042803206 -1.3041897 -4.8384466 1 0 0 0 0
0.061004557 -1.4113579 -3.5730004 1 0 0 0 0
0.095230751 -1.4773275 -2.9627712 1 0 0 0 0
0.093790099 -1.4824871 -1.946752 1 0 0 0 0
0.064054176 -1.4180731 -0.79276657 1 0 0 0 0
0.082404137 -1.3892418 0.082684256 1 0 0 0 0
0.062761627 -1.4728251 1.3382035 1 0 0 0 0
0.069673002 -1.3170645 2.0603783 1 0 0 0 0
0.075896867 -1.4178699 3.454052 1 0 0 0 0
0.041083615 -1.4378111 4.4358153 1 0 0 0 0
0.038988791 -1.4676096 5.1498313 1 0 0 0 0
0.083309874 -1.4029883 6.454854 1 0 0 0 0
0.094646141 -1.4321885 7.4310079 1 0 0 0 0
0.0034026266 -1.4172969 8.3999586 1 0 0 0 0
0.044366084 -1.3959976 9.2202291 1 0 0 0 0
0.099745147 -0.81310433 -9.8677502 1 0 0 0 0
0.013332635 -0.9800306 -8.5539417 1 0 0 0 0
0.0048004026 -0.84474921 -7.7055769 1 0 0 0 0
0.045865458 -0.82059789 -6.8260927 1 0 0 0 0
0.076959901 -0.8389771 -5.6206746 1 0 0 0 0
0.093155079 -0.86465096 -4.9257307 1 0 0 0 0
0.041660931 -0.80471849 -3.5091813 1 0 0 0 0
0.075566694 -0.82277685 -2.5359507 1 0 0 0 0
0.016918249 -0.85037369 -1.5189373 1 0 0 0 0
0.068919405 -0.8903904 -0.79710698 1 0 0 0 0
0.062367249 -0.80229872 0.20161875 1 0 0 0 0
0.07235194 -0.94939876 1.2682819 1 0 0 0 0
0.04997734 -0.97097558 2.292284 1 0 0 0 0
0.039678399 -0.8532064 3.0216112 1 0 0 0 0
0.020189852 -0.98364347 4.4064107 1 0 0 0 0
0.087864354 -0.83191329 5.3721862 1 0 0 0 0
0.08550512 -0.80220556 6.0804906 1 0 0 0 0
0.074116699 -0.80587804 7.4583244 1 0 0 0 0
0.048929848 -0.82025826 8.0429153 1 0 0 0 0
0.0037346599 -0.82783324 9.3875122 1 0 0 0 0
0.0025853058 -0.44667602 -9.8006516 1 0 0 0 0
0.027885919 -0.36602852 -8.9388914 1 0 0 0 0
0.042398132 -0.45871577 -7.6890049 1 0 0 0 0
0.015794938 -0.34180218 -6.990613 1 0 0 0 0
0.023973208 -0.33315769 -5.8896637 1 0 0 0 0
0.0080165584 -0.3705934 -4.9503417 1 0 0 0 0
0.0069137798 -0.42171896 -3.5228162 1 0 0 0 0
0.0039747497 -0.38952264 -2.6522326 1 0 0 0 0
0.093845613 -0.40619293 -1.9075835 1 0 0 0 0
0.079929002 -0.3890267 -0.88891011 1 0 0 0 0
0.0065909848 -0.43402168 0.1240164 1 0 0 0 0
0.073576726 -0.3542822 1.263446 1 0 0 0 0
0.094218843 -0.32983878 2.4754367 1 0 0 0 0
0.073317751 -0.40544072 3.0544114 1 0 0 0 0
0.056738906 -0.40168586 4.1742773 1 0 0 0 0
0.021442208 -0.35755128 5.2143602 1 0 0 0 0
0.060582735 -0.337688 6.248929 1 0 0 0 0
0.01582142 -0.34681448 7.2688026 1 0 0 0 0
0.062724963 -0.40770754 8.2380314 1 0 0 0 0
0.018211603 -0.37074092 9.1376762 1 0 0 0 0
0.051200755 0.17369503 -9.8293695 1 0 0 0 0
0.024059664 0.023301592 -8.9614859 1 0 0 0 0
0.009140268 0.12867999 -7.9903913 1 0 0 0 0
0.056419902 0.11885466 -6.6238027 1 0 0 0 0
0.005576977 0.1406192 -5.8401079 1 0 0 0 0
0.076801337 0.010330164 -4.7328968 1 0 0 0 0
0.057957333 0.096074238 -3.9299834 1 0 0 0 0
0.034550093 0.19564588 -2.8508763 1 0 0 0 0
0.080696322 0.10316702 -1.5372515 1 0 0 0 0
0.045325864 0.19837938 -0.9461934 1 0 0 0 0
0.03217338 0.053449742 0.30981037 1 0 0 0 0
0.043824177 0.12170208 1.4301087 1 0 0 0 0
0.0081641739 0.13710785 2.4758101 1 0 0 0 0
0.067591503 0.14095131 3.2579095 1 0 0 0 0
0.037901107 0.091430284 4.2857943 1 0 0 0 0
0.043066185 0.15538707 5.1698012 1 0 0 0 0
0.091103308 0.062228274 6.4595876 1 0 0 0 0
0.088926248 0.09023495 7.132338 1 0 0 0 0
0.04050976 0.14988446 8.03582 1 0 0 0 0
0.039699454 0.13498388 9.2624493 1 0 0 0 0
0.066424325 0.65650654 -9.576684 1 0 0 0 0
0.027275363 0.58043069 -8.857563 1 0 0 0 0
0.095829286 0.55247414 -7.8167419 1 0 0 0 0
0.066304937 0.54279816 -6.9787846 1 0 0 0 0
0.012020083 0.645962 -5.789279 1 0 0 0 0
0.089713618 0.56027973 -4.5739484 1 0 0 0 0
0.020827752 0.62820017 -3.6184316 1 0 0 0 0
0.065945223 0.61203527 -2.6738005 1 0 0 0 0
0.040887456 0.66497058 -1.9712516 1 0 0 0 0
0.0083794026 0.67929852 -0.77275437 1 0 0 0 0
0.086632662 0.58427817 0.059367258 1 0 0 0 0
0.026848 0.5536046 1.195744 1 0 0 0 0
0.05308507 0.61057937 2.1748905 1 0 0 0 0
0.074484147 0.68388247 3.0064151 1 0 0 0 0
0.047465134 0.69236863 4.0665154 1 0 0 0 0
0.077605009 0.576657 5.0150838 1 0 0 0 0
0.041705098 0.54707772 6.1192226 1 0 0 0 0
0.097722746 0.699705 7.4489489 1 0 0 0 0
0.080208033 0.63018489 8.1533861 1 0 0 0 0
0.069857292 0.64168423 9.1952829 1 0 0 0 0
0.011996383 1.0325825 -9.8715534 1 0 0 0 0
0.038798682 1.0563294 -8.7373142 1 0 0 0 0
0.094088376 1.134627 -7.9718885 1 0 0 0 0
0.086029626 1.0045832 -6.5994678 1 0 0 0 0
0.082213938 1.0071493 -5.8621421 1 0 0 0 0
0.02054243 1.0337555 -4.9741168 1 0 0 0 0
0.044081278 1.0397891 -3.7655914 1 0 0 0 0
0.04393379 1.087478 -2.7769778 1 0 0 0 0
0.0090262238 1.0670575 -1.8759376 1 0 0 0 0
0.079868332 1.1284118 -0.52665102 1 0 0 0 0
0.096159562 1.006525 0.03333085 1 0 0 0 0
0.024324251 1.0579035 1.2273242 1 0 0 0 0
0.091637753 1.1629781 2.1977661 1 0 0 0 0
0.093929358 1.1742227 3.1279142 1 0 0 0 0
0.097503997 1.1344357 4.0389838 1 0 0 0 0
0.014381769 1.1895788 5.141696 1 0 0 0 0
0.034276284 1.1999321 6.3621025 1 0 0 0 0
0.078015298 1.0936955 7.0817714 1 0 0 0 0
0.011544032 1.1829044 8.1269026 1 0 0 0 0
0.075749949 1.0325294 9.0262442 1 0 0 0 0
0.079012454 1.5218689 -9.9929581 1 0 0 0 0
0.0079642031 1.5352013 -8.8713369 1 0 0 0 0
0.089453205 1.6261309 -7.9131479 1 0 0 0 0
0.076564535 1.5052375 -6.943501 1 0 0 0 0
0.043782331 1.5564032 -5.9559813 1 0 0 0 0
0.038571738 1.5719967 -4.8840723 1 0 0 0 0
0.038537756 1.6286752 -3.7126908 1 0 0 0 0
0.085385486 1.5735161 -2.8226144 1 0 0 0 0
0.076837674 1.6062248 -1.7648942 1 0 0 0 0
0.093102358 1.6569858 -0.88614452 1 0 0 0 0
0.0040368317 1.6674834 0.0089177433 1 0 0 0 0
0.021637473 1.6703002 1.0487387 1 0 0 0 0
0.084702969 1.5217656 2.4960048 1 0 0 0 0
0.087321684 1.5565065 3.3788276 1 0 0 0 0
0.01552326 1.579106 4.0977392 1 0 0 0 0
0.051521622 1.5967135 5.2905979 1 0 0 0 0
0.015859209 1.6430846 6.4832864 1 0 0 0 0
0.052617293 1.5580082 7.4102139 1 0 0 0 0
0.0057296702 1.6289625 8.2944021 1 0 0 0 0
0.084222563 1.5230048 9.2599144 1 0 0 0 0
0.067964301 2.068547 -9.719902 1 0 0 0 0
0.053114451 2.072114 -8.6117144 1 0 0 0 0
0.063997261 2.0916095 -7.6881995 1 0 0 0 0
0.092250496 2.0900116 -6.7515912 1 0 0 0 0
0.031803496 2.0415425 -5.6739745 1 0 0 0 0
0.08016026 2.0806382 -4.9163666 1 0 0 0 0
0.051702566 2.1968772 -3.8370705 1 0 0 0 0
0.080706693 2.1901917 -2.5739841 1 0 0 0 0
0.045187935 2.1542773 -1.5453358 1 0 0 0 0
0.056690328 2.0720384 -0.62422287 1 0 0 0 0
0.090963818 2.1760042 0.21559858 1 0 0 0 0
0.027020853 2.0880435 1.4811709 1 0 0 0 0
0.07282564 2.0433576 2.3011572 1 0 0 0 0
0.017831389 2.1680779 3.2624097 1 0 0 0 0
0.03860262 2.0674415 4.4214272 1 0 0 0 0
0.078921676 2.1978517 5.3222284 1 0 0 0 0
0.077360287 2.0313051 6.0807414 1 0 0 0 0
0.072456203 2.0964768 7.4842749 1 0 0 0 0
0.049594931 2.0668831 8.2102146 1 0 0 0 0
0.08561413 2.048749 9.4936657 1 0 0 0 0
0.073616169 2.6990597 -9.5515146 1 0 0 0 0
0.01763789 2.5852993 -8.9164104 1 0 0 0 0
0.039316751 2.5777676 -7.5522823 1 0 0 0 0
0.023355724 2.6982303 -6.9631257 1 0 0 0 0
0.057076495 2.6031942 -5.7701125 1 0 0 0 0
0.05600233 2.5717649 -4.875504 1 0 0 0 0
0.071654841 2.5006564 -3.9887025 1 0 0 0 0
0.019893251 2.5329528 -2.6264215 1 0 0 0 0
0.053334843 2.5266628 -1.8784469 1 0 0 0 0
0.077709295 2.6107485 -0.95037627 1 0 0 0 0
0.077239163 2.6082149 0.41770461 1 0 0 0 0
0.019888747 2.5876091 1.0058941 1 0 0 0 0
0.058772497 2.6210446 2.2024779 1 0 0 0 0
0.057887681 2.6001318 3.3192563 1 0 0 0 0
0.009484781 2.6148815 4.1046391 1 0 0 0 0
0.045367301 2.5068367 5.3846507 1 0 0 0 0
0.045695495 2.5566349 6.2429247 1 0 0 0 0
0.062171943 2.5611539 7.342391 1 0 0 0 0
0.075503327 2.5105853 8.1090651 1 0 0 0 0
0.030877581 2.5592065 9.497612 1 0 0 0 0
0.08498504 3.079056 -9.6161928 1 0 0 0 0
0.02878952 3.0461378 -8.5167484 1 0 0 0 0
0.089311868 3.0484955 -7.7228861 1 0 0 0 0
0.03937773 3.1294866 -6.9334478 1 0 0 0 0
0.096818492 3.0571892 -5.886024 1 0 0 0 0
0.00023677349 3.0990448 -4.6591873 1 0 0 0 0
0.028554251 3.0529051 -3.9307098 1 0 0 0 0
0.059131216 3.150075 -2.6198502 1 0 0 0 0
0.064423867 3.0870314 -1.7423337 1 0 0 0 0
0.094027132 3.1306574 -0.5879457 1 0 0 0 0
0.033555146 3.1297021 0.33697948 1 0 0 0 0
0.056624085 3.0832253 1.4809271 1 0 0 0 0
0.080871835 3.0765257 2.4274864 1 0 0 0 0
0.045615144 3.1873713 3.1243751 1 0 0 0 0
0.074209742 3.0139921 4.1084676 1 0 0 0 0
0.023732128 3.0595825 5.1096516 1 0 0 0 0
0.050184619 3.1959076 6.2524228 1 0 0 0 0
0.025222069 3.0236235 7.0480785 1 0 0 0 0
0.06873773 3.1756835 8.3701982 1 0 0 0 0
0.034066431 3.0787499 9.3403339 1 0 0 0 0
0.098917492 3.5435717 -9.9918909 1 0 0 0 0
0.040530052 3.6783636 -8.7087698 1 0 0 0 0
0.078792877 3.6707344 -7.8044109 1 0 0 0 0
0.072478458 3.6417289 -6.5763354 1 0 0 0 0
0.079474464 3.691479 -5.7052865 1 0 0 0 0
0.0092656929 3.5348659 -4.5866261 1 0 0 0 0
0.0072194352 3.5787265 -3.8357027 1 0 0 0 0
0.019031188 3.6796956 -2.7095923 1 0 0 0 0
0.006872891 3.6989269 -1.8659037 1 0 0 0 0
0.046247866 3.6470063 -0.6955716 1 0 0 0 0
0.068033703 3.5831397 0.29901585 1 0 0 0 0
0.05721543 3.5863836 1.0016661 1 0 0 0 0
0.042582575 3.5028756 2.3956304 1 0 0 0 0
0.013447004 3.5811112 3.2580228 1 0 0 0 0
0.0091864485 3.5505769 4.155395 1 0 0 0 0
0.026619399 3.6684623 5.2017236 1 0 0 0 0
0.065982625 3.633812 6.2378206 1 0 0 0 0
0.055830389 3.6995311 7.3329768 1 0 0 0 0
0.055293899 3.615694 8.367341 1 0 0 0 0
0.028797016 3.6693325 9.0985804 1 0 0 0 0
0.070366874 4.091104 -9.5612507 1 0 0 0 0
0.013558629 4.0107102 -8.7751741 1 0 0 0 0
0.014996357 4.0113769 -7.5622611 1 0 0 0 0
0.055551898 4.1696291 -6.9950261 1 0 0 0 0
0.080840394 4.0728378 -5.9490938 1 0 0 0 0
0.06507159 4.1349959 -4.8159966 1 0 0 0 0
0.03197762 4.0156856 -3.9860837 1 0 0 0 0
0.031743106 4.1108136 -2.7069316 1 0 0 0 0
0.089590117 4.0440044 -1.9304622 1 0 0 0 0
0.074256368 4.1909409 -0.78647709 1 0 0 0 0
0.019808309 4.0303731 0.06535726 1 0 0 0 0
0.025163418 4.0058727 1.1331505 1 0 0 0 0
0.030851748 4.0958028 2.2081323 1 0 0 0 0
0.015666176 4.0708985 3.4858916 1 0 0 0 0
0.052085154 4.0728884 4.3900938 1 0 0 0 0
0.019583147 4.0932508 5.2154517 1 0 0 0 0
0.027425846 4.166852 6.3753395 1 0 0 0 0
0.082832687 4.1724186 7.0340552 1 0 0 0 0
0.0048348624 4.0896459 8.4820061 1 0 0 0 0
0.00030525803 4.1174607 9.3532877 1 0 0 0 0
0.015491744 4.5028701 -9.5476704 1 0 0 0 0
0.01842802 4.5290132 -8.921854 1 0 0 0 0
0.066329516 4.582273 -7.7675948 1 0 0 0 0
0.0017788043 4.6655259 -6.6892643 1 0 0 0 0
0.03822289 4.6598825 -5.9288383 1 0 0 0 0
0.084848218 4.6159201 -4.8309226 1 0 0 0 0
0.068274193 4.5021009 -3.6937933 1 0 0 0 0
0.054483443 4.6522365 -2.7796299 1 0 0 0 0
0.09930636 4.6658587 -1.7554556 1 0 0 0 0
0.058036827 4.6586609 -0.75392932 1 0 0 0 0
0.059471868 4.5999761 0.32352939 1 0 0 0 0
0.073978372 4.5809078 1.4156694 1 0 0 0 0
0.015114948 4.6121664 2.2473171 1 0 0 0 0
0.097877964 4.5051284 3.256211 1 0 0 0 0
0.077819318 4.6294227 4.4473257 1 0 0 0 0
0.035779394 4.6578875 5.3715668 1 0 0 0 0
0.036829792 4.5255184 6.2129378 1 0 0 0 0
0.012948123 4.6480007 7.4853549 1 0 0 0 0
0.095877498 4.536149 8.4818869 1 0 0 0 0
0.075208038 4.6339664 9.2720709 1 0 0 0 0
0.025196096 5.0323949 -9.9305696 1 0 0 0 0
0.065649994 5.1618066 -8.5606785 1 0 0 0 0
0.021733141 5.1280746 -7.9851031 1 0 0 0 0
0.024297288 5.0270014 -6.9957137 1 0 0 0 0
0.089008614 5.1294856 -5.606617 1 0 0 0 0
0.067952268 5.1084161 -4.9277201 1 0 0 0 0
0.080711409 5.0570426 -3.743571 1 0 0 0 0
0.05471186 5.1422176 -2.6788304 1 0 0 0 0
0.072786331 5.1363597 -1.6994429 1 0 0 0 0
0.039769679 5.1291142 -0.8234027 1 0 0 0 0
0.05596716 5.0379424 0.30257779 1 0 0 0 0
0.036870509 5.0657148 1.1308278 1 0 0 0 0
0.00090776058 5.0414433 2.2394934 1 0 0 0 0
0.014408424 5.0474019 3.36098 1 0 0 0 0
0.07915131 5.0491166 4.3060231 1 0 0 0 0
0.033359297 5.0064697 5.1457844 1 0 0 0 0
0.061880611 5.0353818 6.0493412 1 0 0 0 0
0.03298945 5.1379538 7.3229008 1 0 0 0 0
0.001169259 5.0664215 8.1868324 1 0 0 0 0
0.065726392 5.1866441 9.3856812 1 0 0 0 0
0.084697679 5.5572834 -9.8344831 1 0 0 0 0
